-0.019738 -0.016117 0.010668
-0.020348 -0.009300 0.017500
-0.012304 0.019376 -0.043148
0.012415 0.012196 -0.028255
-0.024087 -0.014584 0.005084
-0.017824 -0.010228 0.020979
0.004718 -0.013313 0.015953
0.019965 -0.001761 -0.045457
-0.009817 -0.001758 0.043669
-0.003150 0.027800 -0.037076
0.023125 -0.002134 -0.045038
0.014606 0.006489 0.007719
-0.034196 -0.005062 -0.007226
0.004740 -0.027550 0.000750
-0.026366 0.015748 -0.016365
0.020337 -0.034648 -0.025932
-0.011618 -0.026671 -0.011472
0.015168 -0.003484 -0.045547
-0.005622 0.034627 -0.016957
0.034245 -0.012071 -0.037344
-0.014831 0.008734 0.036747
-0.007008 0.017937 0.022545
-0.024023 -0.014661 -0.043859
-0.018009 -0.001145 0.030835
-0.007087 0.033790 -0.028729
0.017063 -0.038118 -0.018445
-0.017620 0.014854 0.016397
-0.027093 0.013082 -0.001139
-0.033144 0.001263 -0.004886
-0.020293 0.017509 -0.042094
0.009277 0.011104 -0.000390
-0.008604 0.024333 -0.039904
0.027126 -0.031146 -0.007907
-0.032144 -0.004398 -0.002801
0.015566 0.013506 -0.042105
0.006885 0.033893 -0.009108
0.015340 0.004717 -0.027359
-0.020072 -0.027265 -0.025132
0.017535 -0.037827 -0.020254
-0.010735 0.031193 -0.000667
-0.009061 0.018085 0.016528
0.004542 -0.036022 -0.030016
-0.025789 -0.022953 -0.035118
-0.013324 0.007509 -0.045646
-0.008873 -0.020881 0.014450
-0.004323 -0.034516 -0.029903
0.000725 -0.023352 -0.042733
-0.030427 -0.006952 -0.042571
-0.010895 -0.029333 -0.024253
0.002909 -0.035587 -0.015609
0.002249 0.019825 -0.042166
0.008579 0.030884 -0.006591
0.009526 0.021416 0.017171
-0.000099 0.001660 0.045565
-0.020396 -0.008378 -0.045009
0.015615 -0.012001 -0.045186
0.011008 -0.009918 0.031146
0.010081 0.022773 0.000952
0.030462 -0.028708 -0.013676
-0.028278 0.015859 -0.029586
-0.020203 -0.001895 0.024078
-0.037283 -0.006304 -0.027984
0.011813 -0.004592 0.005905
0.004373 -0.014337 -0.044813
0.000713 0.018680 0.020986
-0.006243 0.035783 -0.003651
-0.001360 0.022912 0.005423
0.023332 0.005384 -0.029523
-0.028650 0.013568 -0.011186
-0.006599 0.034920 -0.014753
0.029404 -0.010523 -0.033603
0.032481 -0.008436 -0.045391
-0.007777 0.019006 0.013569
0.018465 0.013380 -0.037521
-0.022235 -0.012463 -0.044668
0.006297 -0.010268 -0.045141
0.006358 -0.032261 -0.033660
0.018145 0.005723 -0.045227
-0.003760 0.002082 -0.045389
-0.019507 -0.009485 0.018857
-0.003313 0.015461 -0.044761
0.006713 0.016994 -0.020088
-0.003165 0.026269 -0.038077
-0.013210 0.026947 0.003456
-0.012088 0.026570 -0.015068
0.009433 0.006898 -0.008740
0.027987 0.002374 -0.031197
-0.003236 0.001183 0.045885
-0.008206 0.023661 0.007233
-0.029798 0.003400 0.001707
-0.001648 -0.004050 0.044599
0.009194 0.027322 -0.009815
0.000768 -0.035224 -0.009098
-0.003216 0.033208 -0.000237
0.000146 -0.036332 -0.026163
0.009545 0.003514 -0.001019
-0.003720 -0.032116 -0.019952
-0.031491 0.011441 -0.033542
-0.017503 0.025506 -0.033436
-0.005410 -0.020057 -0.044453
0.016941 -0.029709 -0.033494
0.010767 -0.030115 -0.033416
-0.013722 0.013335 0.029716
-0.026426 -0.018716 -0.040559
-0.014764 -0.006713 0.031732
0.020075 -0.005711 0.014183
-0.036084 0.000378 -0.033703
-0.019942 0.015921 0.012382
-0.027528 0.014121 -0.009443
0.017261 0.006213 0.023071
-0.012742 -0.003888 -0.044970
0.031652 -0.015304 -0.035740
-0.011548 0.024863 0.006441
0.016196 -0.017980 -0.009256
0.011577 0.032332 -0.026113
0.013006 -0.002006 -0.015345
0.002320 0.037088 -0.020109
0.026673 -0.007785 -0.045504
-0.014343 0.024133 -0.018557
0.001319 0.004257 0.045120
-0.032673 -0.018354 -0.018265
-0.012287 0.029501 -0.032407
0.012389 0.018386 -0.025738
-0.008243 -0.019099 0.017050
-0.016296 -0.003491 -0.044985
0.013374 0.004164 -0.024390
-0.006725 -0.015820 -0.044700
-0.028526 0.004005 0.004320
-0.010852 0.001111 -0.045158
0.008919 0.031537 -0.031991
-0.003235 -0.027996 0.004058
-0.027239 -0.003757 0.006807
0.002594 0.033411 -0.032356
-0.004848 0.016776 0.035572
-0.026265 -0.017881 -0.002675
0.007410 -0.000238 0.042658
-0.034491 -0.010768 -0.011194
-0.014290 0.021140 -0.041388
0.009034 0.023191 -0.009144
0.009491 0.033084 -0.019329
0.024763 -0.011749 -0.030929
0.013340 -0.003748 -0.045480
0.001855 0.025511 -0.038377
0.026489 -0.002305 -0.044377
0.026505 -0.021715 -0.029916
-0.013343 -0.020181 -0.044372
-0.011454 0.001323 0.043257
0.018225 -0.018229 -0.008378
-0.028341 0.014154 -0.012930
0.028626 0.005143 -0.039004
-0.001826 0.016891 0.036895
0.003949 0.035861 -0.004787
0.015143 -0.001974 0.036744
0.010074 -0.001641 -0.001056
0.009406 -0.013805 -0.044943
-0.024645 -0.015454 0.003074
0.002593 0.019321 0.020140
0.004692 0.021588 0.015194
0.008695 -0.037023 -0.026701
0.007999 0.022222 0.014243
-0.006101 0.018744 0.014042
0.026039 -0.012172 -0.031502
-0.017062 -0.024654 -0.006209
-0.000154 -0.025375 0.005524
0.006957 0.033045 -0.012644
0.020458 -0.024093 -0.041010
-0.020093 -0.026665 -0.018420
-0.014191 -0.005528 0.035004
0.013377 -0.033117 -0.030033
0.024885 -0.017520 -0.011101
0.000725 0.030537 0.001031
0.008203 0.030278 -0.003524
0.019509 -0.000565 0.021900
-0.021121 -0.015017 -0.044452
0.021607 -0.034510 -0.024888
-0.022790 0.005273 0.017345
-0.008490 0.010374 -0.045765
0.030293 -0.021454 -0.040339
0.007333 -0.038277 -0.020459
-0.010316 -0.030276 -0.025827
0.027075 -0.015901 -0.045395
-0.034929 -0.012838 -0.031509
-0.017156 0.019992 0.010007
-0.032802 -0.017576 -0.016248
-0.031535 0.004274 -0.002610
0.030272 -0.022948 -0.009215
-0.036780 -0.010319 -0.023076
0.003332 -0.035959 -0.007331
0.012089 0.015415 0.002738
-0.036079 -0.012198 -0.020401
0.007392 -0.004367 -0.045297
0.009612 -0.008999 -0.001562
0.028740 -0.013243 -0.033179
-0.020469 0.005541 0.022822
0.029369 -0.028106 -0.007865
-0.019514 -0.010706 0.017441
0.020655 -0.016649 -0.014605
-0.002576 -0.021180 0.011813
-0.032257 -0.003716 -0.041289
0.002618 -0.018044 -0.044184
0.015008 0.011979 0.030074
0.023912 -0.016780 -0.020808
-0.013866 -0.013162 -0.044724
-0.037802 -0.001777 -0.026028
0.004138 0.004410 0.044151
-0.011968 -0.017798 0.017492
-0.016791 -0.014519 0.016981
0.012094 0.002112 0.005312
-0.002488 -0.035199 -0.030049
-0.007464 0.034140 -0.025135
-0.036604 -0.006769 -0.014529
-0.015204 -0.007175 0.030029
0.007258 0.020991 -0.017550
0.020703 0.002564 0.011964
-0.033592 0.010133 -0.021414
-0.008070 -0.012344 0.031403
-0.031558 -0.019906 -0.018132
0.015628 0.002619 0.006889
0.006679 -0.028748 -0.036304
0.018325 0.011910 -0.032517
0.032033 -0.016143 -0.045480
0.020776 -0.019773 -0.044748
-0.002920 0.023208 0.005536
-0.022733 -0.022110 -0.039891
-0.035809 -0.007487 -0.012354
0.006470 0.022357 0.010069
-0.035015 -0.008274 -0.010687
0.025692 -0.033036 -0.011201
0.008819 0.030572 -0.016292
0.018947 -0.025735 -0.000101
0.015310 -0.037386 -0.012209
-0.018445 -0.025943 -0.014690
0.010587 0.016766 -0.001747
-0.004764 -0.019728 0.015260
-0.001936 -0.024398 0.007979
0.016043 0.005299 0.035840
-0.015960 -0.003602 0.033713
0.000625 0.036645 -0.017739
-0.003235 0.018489 0.015706
0.018363 -0.033878 -0.028241
0.029286 -0.008803 -0.033333
-0.000496 0.037579 -0.013637
-0.026674 -0.007354 0.006282
0.026773 -0.007310 -0.031432
-0.018396 -0.005172 0.025851
0.022795 -0.034240 -0.023622
0.015143 0.004641 0.007259
0.020496 -0.016944 -0.012472
-0.019553 0.009141 -0.045396
-0.027505 -0.020984 -0.009306
-0.026877 -0.002084 0.008126
0.002384 0.020126 0.016897
-0.010056 0.021484 -0.041942
0.021319 -0.029355 -0.032529
-0.030818 0.010622 -0.036628
0.011685 0.010108 0.005726
-0.006544 -0.012870 -0.044769
-0.015671 0.027404 -0.032179
0.014036 0.016301 0.008420
0.029080 -0.021645 -0.038891
-0.015076 -0.008182 0.028674
0.028986 -0.030594 -0.011751
-0.014183 -0.012594 0.022979
-0.018730 0.020454 -0.008670
-0.027458 0.014990 -0.014703
0.011788 0.022249 -0.037894
-0.011188 0.022303 -0.041218
-0.002821 0.038754 -0.009248
-0.027242 0.014690 -0.011457
-0.021906 0.019254 -0.038710
0.015716 -0.003663 0.007189
0.027191 -0.028481 -0.004974
-0.010160 0.022883 0.008512
0.012894 0.003703 -0.020504
0.012208 -0.005033 -0.045388
0.025568 -0.000907 -0.028842
0.020856 -0.010784 -0.045452
0.008427 -0.015587 -0.009585
-0.023421 0.020465 -0.032846
0.011368 -0.010838 0.025854
0.027872 -0.019396 -0.009155
-0.000229 0.037243 -0.025238
-0.031248 0.012568 -0.019967
-0.027170 0.015695 -0.020728
-0.010458 0.004232 -0.045348
0.011290 -0.010230 0.027989
0.003713 0.006294 -0.045766
0.008819 -0.024899 -0.038551
-0.007968 0.021149 -0.042163
-0.000119 -0.004686 0.044148
0.003541 0.037076 -0.010699
-0.005270 -0.008785 -0.044899
0.007812 -0.009299 0.005515
-0.015815 0.008423 0.034908
0.023927 -0.017775 -0.009740
0.026397 -0.023119 -0.040388
-0.022021 0.011389 0.014325
0.015613 -0.037439 -0.023567
-0.010535 0.033784 -0.006749
-0.015693 0.027145 -0.000223
-0.030905 -0.018274 -0.035149
-0.013547 0.024028 0.006928
-0.019574 -0.018173 0.008163
0.006670 0.008747 -0.045854
-0.010418 -0.010934 -0.044779
0.031057 -0.025148 -0.018219
0.020349 -0.005333 0.016643
-0.014167 0.020243 0.011367
0.014338 -0.038437 -0.016112
0.000923 -0.014780 0.018843
0.009487 0.017074 -0.004315
0.021546 -0.002190 0.016485
-0.016766 -0.026714 -0.037423
0.013385 0.020293 -0.026064
-0.014435 0.022412 -0.040283
0.011466 0.003588 -0.014967
0.008112 0.010228 -0.007999
0.014618 -0.000285 -0.045697
-0.023139 -0.003947 0.016278
-0.001223 -0.000134 -0.045308
-0.033667 -0.012451 -0.035880
0.018958 0.007520 0.017205
-0.011463 -0.011784 0.028051
-0.003227 -0.013292 0.033072
0.010487 -0.038215 -0.015381
-0.016182 -0.028464 -0.029569
-0.009491 0.018854 -0.043676
0.016684 -0.009057 0.013113
0.010680 -0.004797 -0.007156
0.011568 0.022317 -0.021414
0.010963 0.020649 0.001848
-0.017579 -0.021015 -0.043433
-0.021901 -0.015443 0.007956
-0.033621 -0.011421 -0.009604
-0.009929 0.030046 -0.016550
-0.013592 0.030261 -0.005777
-0.030283 0.011342 -0.009180
0.034156 -0.013670 -0.037447
0.009753 0.033583 -0.028211
0.008964 -0.008232 0.006467
-0.024382 0.018287 -0.023560
0.002826 0.021253 0.012427
0.010516 0.022214 -0.004808
0.003348 0.018577 -0.043047
-0.005526 0.006840 -0.045642
0.027464 -0.031923 -0.011373
-0.012056 0.015386 0.026125
-0.019282 0.013619 0.015897
-0.031989 0.005105 -0.004219
0.010680 0.002975 -0.011578
-0.037168 -0.000213 -0.029596
-0.005046 0.002082 0.045831
-0.022472 -0.005368 0.016810
-0.001630 -0.026952 0.004798
0.015134 0.006406 0.036442
-0.015274 0.015887 -0.044631
-0.023461 -0.009915 0.010942
0.021627 -0.001037 -0.045221
-0.037924 -0.003360 -0.022298
0.008104 -0.010084 0.002421
-0.022565 -0.013973 -0.044371
0.016896 0.004932 0.026195
0.023261 -0.034862 -0.016629
-0.006914 0.033332 -0.018283
-0.027935 -0.001832 -0.044290
0.028328 -0.005193 -0.044812
0.010630 -0.035307 -0.002726
-0.013647 0.029725 -0.026141
0.007109 0.002797 0.042893
-0.036469 -0.010310 -0.017820
-0.003123 0.017109 0.035901
-0.012724 0.014338 0.029076
-0.008490 -0.032336 -0.030057
-0.028358 0.013355 -0.037676
-0.024667 0.015351 0.004236
-0.034979 0.007546 -0.029041
0.026475 -0.016878 -0.030571
-0.011390 0.032294 -0.003796
0.025258 -0.026823 -0.002651
-0.016378 0.020408 -0.013585
0.014562 0.019798 -0.030927
0.006078 0.013046 -0.010209
-0.001811 -0.034094 -0.021148
0.023672 0.009744 -0.037614
0.007815 -0.027257 -0.036864
0.003428 0.014978 -0.044884
-0.023024 -0.007340 0.014184
0.010766 0.014711 0.031726
0.008224 0.025172 -0.012890
0.009833 0.021778 0.010364
-0.021725 -0.025884 -0.015439
0.005663 0.014979 0.037735
0.025996 0.005367 -0.031286
0.009735 -0.011859 0.025081
-0.004019 -0.005732 -0.045012
0.030028 -0.021317 -0.010457
0.028115 -0.018134 -0.018165
0.006208 0.011203 0.040992
-0.030373 -0.005363 0.000192
0.001622 -0.035519 -0.007726
0.007077 -0.013089 0.022831
0.024918 -0.024470 -0.034084
0.011338 -0.010769 0.011414
-0.012772 -0.024087 0.007391
0.020583 -0.000274 0.020029
0.016559 0.009863 -0.029942
-0.035755 -0.009416 -0.032509
-0.005863 -0.032010 -0.009077
-0.020885 0.017373 0.009342
-0.018275 -0.027324 -0.022385
0.004968 0.028985 0.000945
0.023739 -0.024292 -0.038976
-0.023333 -0.026292 -0.025424
-0.034089 -0.002391 -0.038822
-0.021891 -0.001650 0.020060
-0.006265 -0.015881 0.023689
-0.033748 -0.004083 -0.005980
0.009954 0.003219 0.041097
-0.034819 -0.000680 -0.037258
-0.014442 0.024034 -0.038722
0.006949 0.020617 0.019962
0.001212 -0.024537 0.004930
0.012431 -0.012828 -0.016732
-0.007028 -0.008504 0.039725
-0.016243 -0.009139 0.025131
0.018950 -0.019650 -0.044647
-0.009409 -0.013565 0.026848
0.012568 0.013649 0.028773
-0.001730 0.009415 0.044421
0.006175 0.020356 -0.041998
0.023869 0.008070 -0.032158
0.009610 0.018806 -0.005324
-0.013149 -0.025692 0.003582
-0.012878 0.029403 -0.010366
0.013987 0.008208 -0.045514
0.008680 -0.022893 -0.001312
0.013277 -0.015187 -0.044959
-0.010318 0.016765 0.022803
0.005924 0.027616 -0.036933
-0.000146 -0.033990 -0.016886
0.016050 -0.008060 -0.045329
-0.004753 -0.025406 -0.043167
0.004592 -0.012735 0.030488
-0.026794 0.017297 -0.029141
-0.023086 0.009742 -0.044588
0.007500 -0.038209 -0.022935
0.017576 0.007660 0.020782
-0.011213 0.031451 -0.028643
0.009055 0.024869 -0.016594
-0.003659 -0.027022 0.005636
0.020204 0.010759 -0.032561
-0.004357 -0.033197 -0.023157
-0.034223 -0.014262 -0.032067
0.009974 -0.024036 -0.039214
0.012636 -0.020213 -0.004597
0.026573 -0.018562 -0.030367
-0.013914 0.027320 -0.021414
-0.007442 0.018374 0.015594
0.011397 -0.038563 -0.022025
0.008622 0.035635 -0.022539
-0.033518 -0.006958 -0.039127
0.009568 0.003471 0.002222
0.004216 -0.020707 0.002539
-0.006192 -0.013232 0.031204
-0.019957 0.002756 0.026077
0.001291 -0.005703 0.043323
0.003025 0.034454 -0.002268
0.025593 -0.013437 -0.045487
0.033775 -0.017246 -0.045008
-0.017542 0.026251 -0.026584
-0.025102 -0.023531 -0.011163
-0.019228 -0.012551 0.015731
-0.030077 -0.010790 -0.002148
0.019509 -0.006735 0.015310
0.011057 0.014876 -0.026399
-0.024801 0.015634 0.002641
-0.027393 -0.011007 0.002421
-0.024119 -0.022545 -0.007452
0.010930 -0.012093 0.014200
-0.006872 -0.029874 0.000313
0.012741 -0.025371 -0.038055
-0.029801 0.010529 -0.005511
0.020184 -0.004686 0.012291
-0.030600 -0.021382 -0.021533
0.007109 0.028820 -0.000386
0.001589 0.037508 -0.022022
-0.029197 0.002696 0.003163
0.029097 -0.025406 -0.006294
0.017899 -0.022325 -0.042899
0.006879 -0.032166 -0.000591
-0.025032 -0.024100 -0.033194
-0.002313 0.018728 0.025760
-0.001733 -0.025082 -0.042760
-0.004286 0.012499 0.042331
0.012233 -0.038057 -0.023544
-0.000395 0.018417 0.032838
-0.015287 0.015152 0.018899
0.005742 0.017258 0.031004
0.006371 0.014395 -0.008622
-0.006597 0.020204 -0.042632
0.012977 -0.038800 -0.019201
-0.012259 -0.012005 0.026500
-0.007099 0.008733 -0.045725
-0.027571 0.015875 -0.023973
0.005267 -0.037382 -0.026293
0.001496 -0.027259 0.002315
-0.005542 0.018184 0.021104
-0.009655 -0.027471 -0.018584
-0.009677 0.032104 -0.022982
0.030121 -0.002530 -0.032592
-0.004582 -0.021956 0.012373
0.001750 -0.014273 0.026363
-0.020545 -0.018352 0.006225
0.001950 0.037936 -0.010637
-0.006320 0.020134 0.010652
0.010063 -0.007625 -0.002429
-0.016892 0.024768 0.002968
0.008859 -0.037900 -0.024576
-0.023739 -0.019445 -0.041770
0.004365 -0.027266 -0.038799
-0.016347 -0.022279 -0.043142
-0.020390 0.021999 -0.036074
0.015420 -0.008377 -0.025418
-0.003383 -0.003060 -0.045120
-0.034081 -0.015136 -0.030942
0.012169 0.013480 0.024957
-0.001896 0.030085 0.001533
0.007637 -0.025863 -0.038072
0.019234 0.007030 0.014052
-0.034445 0.002960 -0.008705
-0.019556 0.014719 0.014254
-0.005453 -0.002455 -0.045118
-0.011428 -0.010205 0.031521
-0.020727 0.022933 -0.026354
0.003189 -0.033582 -0.034117
0.030162 -0.025471 -0.021389
-0.007376 0.016726 0.032832
0.004653 0.027436 0.002019
-0.026172 -0.017097 -0.041900
-0.006408 -0.029232 -0.017079
0.016799 -0.016047 -0.017808
-0.029605 -0.013771 -0.003807
-0.024463 0.006814 0.012881
0.002520 -0.015488 0.008733
-0.029250 -0.003083 0.002911
0.026064 -0.021030 -0.005137
-0.005266 -0.033774 -0.026405
-0.037339 0.001007 -0.027688
0.021953 -0.026137 -0.036293
-0.031712 0.012434 -0.025307
-0.003618 0.016250 0.037528
-0.014036 0.009605 -0.045767
-0.010815 0.016047 -0.044974
0.018394 -0.023909 -0.000768
-0.003676 0.022208 0.006785
0.008555 -0.034891 -0.029888
0.014840 -0.000430 0.037250
0.013468 0.026536 -0.024113
-0.024877 -0.019244 -0.002471
0.034796 -0.009079 -0.037986
-0.000105 -0.011252 -0.044943
0.010935 0.000344 -0.045615
-0.021024 -0.013070 0.012110
-0.020776 -0.019567 0.003511
0.030695 -0.009701 -0.045625
0.023790 0.000138 -0.028260
0.027800 -0.014166 -0.032344
-0.011984 -0.027293 -0.019897
0.018481 -0.009160 -0.045370
0.028349 -0.030854 -0.009948
-0.012862 0.021691 -0.041339
-0.006362 0.016757 0.034138
-0.028875 -0.012483 -0.042219
0.012926 0.026170 -0.022335
0.009143 0.009898 -0.020023
0.020739 -0.029727 -0.000861
0.002800 0.008309 -0.045875
-0.017666 -0.004158 0.028708
0.006465 -0.036667 -0.011725
-0.013590 0.004365 0.041014
0.008113 -0.036597 -0.006686
-0.022052 -0.021715 -0.003119
-0.026145 -0.024869 -0.025644
0.023846 -0.022612 -0.043239
0.009259 0.017921 -0.022236
-0.026479 -0.010105 0.004791
0.009116 0.024144 -0.038554
0.026109 -0.017689 -0.045257
0.001245 -0.032057 -0.036672
-0.030754 -0.012432 -0.004668
-0.036948 -0.008994 -0.018853
0.006346 0.024491 0.003513
-0.022416 0.017501 -0.008745
0.011658 0.015756 0.022524
-0.025087 0.018996 -0.031318
-0.035903 -0.011014 -0.029674
0.000385 0.001251 -0.045409
0.007711 0.027022 0.000407
0.011646 0.020878 0.013177
0.011405 0.029664 -0.019753
-0.031328 0.012334 -0.018055
-0.002644 0.016821 -0.044054
-0.015859 0.028028 -0.028360
-0.037605 -0.002139 -0.017967
-0.009214 -0.016939 0.020308
-0.023470 -0.008414 0.012324
0.020560 -0.016377 -0.018015
0.017077 0.000809 0.034979
0.008760 0.027549 -0.011604
-0.030448 0.013309 -0.031796
0.004630 -0.012233 0.032719
-0.001614 -0.017983 -0.044539
0.012261 -0.030457 -0.032778
0.002628 -0.032563 -0.035525
-0.015560 0.013166 0.023742
0.017895 0.002411 0.030191
0.011459 0.004690 -0.045850
0.003144 -0.013450 0.012444
-0.023028 -0.017510 0.003136
0.019033 -0.003644 0.021777
-0.000801 0.023985 0.004479
0.009649 0.010798 0.038748
-0.011238 -0.029699 -0.037385
-0.018121 0.023023 -0.005782
-0.033858 -0.016835 -0.021055
-0.028700 -0.023098 -0.024504
-0.000239 -0.015256 0.022133
-0.033201 -0.013901 -0.035592
0.035882 -0.008533 -0.044489
0.016113 0.008188 0.023777
-0.002638 0.037066 -0.003900
0.015598 -0.001654 -0.045636
-0.013242 0.020378 -0.042243
-0.003898 0.031402 -0.034111
-0.004777 0.026926 -0.037795
0.011698 -0.009312 0.032628
-0.006914 0.017978 0.024619
-0.012752 -0.026979 -0.006947
-0.024277 0.016382 -0.007456
-0.026538 0.012915 0.002563
-0.002669 0.013124 0.042068
0.010358 -0.008407 -0.007444
0.016176 -0.002381 0.035439
0.007228 0.022442 0.008025
0.011757 -0.000879 -0.012613
0.031719 -0.008636 -0.035263
0.020051 -0.027373 -0.035762
0.015215 0.015583 0.016690
0.003975 -0.013797 0.021274
-0.032862 -0.007688 -0.005476
-0.000255 -0.017022 0.012943
-0.010406 0.017805 0.016918
-0.009733 0.019199 0.013451
-0.003390 -0.034223 -0.024099
0.010593 0.006279 0.040110
-0.036037 -0.001947 -0.034447
-0.028806 -0.023068 -0.019976
-0.006937 -0.017286 0.020251
-0.000191 -0.033305 -0.035634
-0.035021 -0.011665 -0.032781
0.020117 -0.023645 -0.001194
-0.035603 -0.000430 -0.035353
0.001143 -0.012852 -0.044925
-0.032316 -0.000745 -0.041264
0.007035 -0.015010 -0.002225
0.017208 0.009964 0.018369
0.020522 -0.013389 -0.027579
-0.020202 0.020404 -0.020994
0.011932 0.007408 -0.025319
0.005675 0.026243 -0.038027
-0.000395 -0.015597 0.017859
-0.018553 0.010440 -0.045441
0.006209 0.034773 -0.007641
-0.002035 0.034306 -0.001028
-0.016560 0.013135 -0.045313
0.018985 -0.001062 0.008816
0.014420 -0.000107 -0.021846
-0.021283 -0.000815 0.021820
-0.012347 0.020805 0.011054
-0.007971 -0.013851 0.027726
-0.017558 0.024042 -0.036128
0.021512 -0.001351 0.013296
-0.013474 -0.020423 0.012614
0.004322 0.015836 -0.012667
-0.018609 -0.010656 0.019081
-0.035093 -0.007638 -0.035812
-0.032197 0.009892 -0.011731
-0.001309 -0.002180 -0.045194
0.024481 -0.004959 -0.045218
0.010261 0.002325 -0.008287
0.015063 0.016978 -0.037764
-0.035098 0.005432 -0.012945
0.013094 -0.014863 -0.016679
-0.009237 0.028507 0.002983
-0.021834 0.016806 -0.041684
0.012177 0.020182 0.016172
-0.019450 0.022011 -0.022368
-0.011593 -0.030403 -0.028818
0.024351 0.008585 -0.039827
-0.020091 -0.003942 -0.045097
0.015972 -0.018256 -0.044703
0.006479 0.010760 -0.045781
-0.003664 0.026314 0.003745
0.005536 -0.018337 -0.000125
0.030488 -0.020791 -0.016541
0.014343 0.022479 -0.029339
-0.017555 -0.022821 -0.042330
0.026994 -0.022826 -0.038847
0.027887 -0.029876 -0.021967
-0.020818 0.013046 -0.044443
-0.021369 -0.025174 -0.035552
0.010090 -0.019570 -0.043038
0.016636 -0.018767 -0.007290
0.006705 -0.010570 0.007953
-0.016744 0.023240 -0.020512
0.010573 0.027451 -0.034676
-0.031062 -0.020691 -0.025237
-0.009573 -0.024093 0.009696
-0.036827 0.000584 -0.030826
-0.001596 -0.004140 -0.045102
-0.019664 -0.001684 0.025681
0.009928 0.028916 -0.033888
0.009341 -0.007496 0.038359
0.006549 -0.017811 -0.043866
-0.008520 0.014152 0.037878
-0.000036 0.008268 0.044620
-0.030789 -0.010901 -0.041204
-0.010268 0.032164 -0.025025
-0.001634 -0.015846 0.021134
0.008755 -0.038529 -0.021469
0.004099 -0.006637 0.041835
0.010803 0.007052 -0.018675
0.030680 -0.027105 -0.018242
-0.036467 -0.007525 -0.031282
0.020624 -0.027530 -0.000364
0.010669 0.011219 -0.026256
0.017308 0.010437 0.016363
0.013642 -0.008173 0.029752
0.013578 -0.020746 -0.043046
0.009656 0.027238 -0.003660
0.003015 0.001143 0.044729
-0.033061 -0.018115 -0.024127
-0.023288 0.018637 -0.022190
0.022326 0.009719 -0.033027
0.008057 0.032055 -0.008032
-0.005721 0.037670 -0.007571
0.012947 0.029592 -0.026732
0.018379 -0.008131 0.015456
0.031861 -0.001724 -0.035777
-0.009522 0.021832 0.009559
-0.025828 0.017139 -0.023548
-0.001198 0.017837 0.034751
0.009144 0.007331 0.002152
-0.036665 -0.010396 -0.019698
-0.015292 0.012041 0.028677
-0.003455 0.018374 0.021331
0.012708 -0.007031 0.036304
-0.002495 0.015245 0.039652
0.011484 -0.035138 -0.028384
-0.016038 0.023516 -0.038295
-0.001994 0.019354 0.012559
0.014155 0.014820 0.019942
-0.011572 0.032597 -0.005808
0.012278 0.005854 -0.023557
-0.017521 0.023081 -0.037635
-0.016720 0.026077 -0.004129
0.008627 -0.012484 -0.003184
0.015909 -0.009000 -0.026774
0.031836 -0.000458 -0.037412
-0.035822 -0.005700 -0.011548
0.011601 -0.022197 -0.041226
-0.021728 -0.009324 -0.044968
-0.018756 0.021666 0.005787
0.001904 0.020303 0.015194
-0.027098 -0.015163 -0.000873
-0.016786 0.014503 0.018005
0.029657 -0.021906 -0.021922
-0.024308 0.010803 0.010727
0.015499 0.016767 -0.034802
0.019807 -0.022079 -0.002247
-0.015669 -0.026686 -0.038739
-0.020761 -0.009810 0.016170
-0.030166 0.013352 -0.017909
0.009182 -0.010870 -0.002250
-0.019664 0.019248 -0.009391
-0.015066 0.001830 0.039114
-0.032451 0.002472 -0.040351
0.005341 -0.008510 -0.045152
-0.036412 -0.001422 -0.033138
-0.014404 0.028197 0.000158
-0.016618 -0.024366 -0.041391
0.015186 0.014499 0.011380
-0.030334 -0.014204 -0.005513
-0.026600 0.002971 -0.044466
0.013581 0.012428 0.027687
-0.002772 0.038476 -0.011299
-0.009030 -0.029340 -0.009626
0.006502 0.026754 0.001621
0.005963 0.014936 -0.019131
0.030434 0.002838 -0.037346
-0.000176 -0.006316 0.043158
-0.005603 0.018126 0.017861
-0.023784 -0.012418 0.007902
0.030359 -0.005011 -0.044293
0.001851 0.018178 0.032969
-0.003023 0.018216 -0.043273
-0.002924 -0.027829 -0.041619
-0.027729 -0.018735 -0.039385
0.022876 -0.034085 -0.009285
0.034241 -0.007586 -0.037747
0.002115 0.032256 -0.033514
-0.018316 -0.014967 0.014215
0.011086 0.012706 0.002537
-0.020035 0.021977 -0.000919
-0.012119 0.022059 0.009518
-0.033891 0.004759 -0.036595
0.025300 -0.017666 -0.027724
-0.002289 0.014331 0.040886
-0.005846 0.028410 0.002953
-0.035068 -0.009406 -0.034821
0.000851 -0.009398 -0.045014
0.028063 -0.009307 -0.032634
0.015718 -0.008025 0.024160
0.005725 0.034772 -0.005657
0.005135 0.019109 -0.012279
-0.015758 0.027556 -0.002585
-0.034497 -0.006394 -0.008427
0.028270 0.005750 -0.036196
-0.018738 -0.023175 -0.002109
0.009769 0.001603 0.041284
0.023772 -0.025616 -0.001724
0.025438 -0.022967 -0.042186
0.004605 0.037474 -0.023878
-0.036357 -0.005900 -0.013232
0.030817 -0.011144 -0.034637
-0.023982 0.017113 -0.000024
0.018893 -0.031781 -0.030803
0.019604 -0.036924 -0.020811
-0.015805 0.023195 0.006733
-0.019814 0.021935 -0.002778
0.014846 -0.038604 -0.019070
0.026682 -0.024590 -0.028110
-0.020649 0.021233 0.000784
-0.014296 -0.009382 -0.044840
0.007201 -0.035032 -0.002931
-0.036600 0.002115 -0.030748
-0.008281 0.027343 -0.037409
0.008046 0.005805 0.041944
0.012125 0.021233 -0.022979
-0.021220 0.020501 -0.000691
-0.022376 -0.009215 0.013759
0.020309 0.004591 0.018296
-0.024734 0.003619 0.013433
-0.009890 -0.006044 0.040686
-0.005936 -0.029843 -0.018684
-0.017136 0.026900 -0.028511
0.016250 0.007284 0.035059
0.002296 0.016631 0.037133
-0.025414 0.011925 -0.042538
0.012565 -0.035429 -0.002985
-0.033548 0.010217 -0.027440
-0.013708 -0.009431 0.029047
-0.002319 -0.008736 0.040965
-0.015648 0.011491 -0.045643
0.007391 -0.008729 0.038269
0.014538 0.011588 0.022670
0.011989 0.025263 -0.034995
0.008517 0.026841 -0.012974
0.020012 -0.002000 0.010194
-0.020670 -0.014495 0.011097
-0.015858 -0.001105 0.036523
0.018152 0.008338 0.018366
0.004363 0.014851 0.038854
-0.019712 -0.024595 -0.009315
-0.027389 0.003230 0.007083
0.016957 -0.002475 0.026467
0.025607 -0.017025 -0.018003
-0.023279 -0.005314 0.015165
0.001408 0.034603 -0.001729
0.006225 0.012760 -0.045474
-0.012822 -0.029817 -0.033785
-0.035232 0.005874 -0.031664
0.008488 0.006290 -0.045829
0.007794 0.031537 -0.013072
0.016800 0.011974 -0.031328
-0.035155 -0.010728 -0.013038
-0.020241 0.023494 -0.032793
-0.004804 -0.027051 -0.042369
-0.009296 0.025375 0.005865
0.011446 0.028303 -0.032821
-0.032697 -0.010413 -0.039075
-0.019403 -0.027291 -0.023579
-0.014807 0.016886 0.016032
0.000103 0.017843 -0.043363
-0.024192 -0.006554 0.012321
0.009120 0.026809 -0.015849
-0.033587 -0.014414 -0.034039
-0.003892 0.034770 -0.001539
-0.024281 0.017330 -0.019856
-0.037934 -0.002916 -0.024146
0.025435 -0.016311 -0.029463
-0.018876 0.002346 -0.045232
-0.000394 -0.010806 0.038371
0.009732 0.019427 -0.021416
-0.012024 0.008756 -0.045711
0.022638 -0.010795 -0.045531
-0.020129 -0.019396 0.005124
0.001826 0.000426 -0.045384
-0.005823 0.007925 0.044678
-0.017952 -0.006694 -0.044957
-0.034692 -0.014048 -0.030252
-0.022033 0.000585 0.020270
-0.029171 -0.018232 -0.038227
0.004894 0.036841 -0.026648
-0.012451 -0.002398 0.041130
-0.016064 -0.009562 -0.044871
0.005002 0.030356 -0.034845
0.021617 0.009482 -0.041493
-0.004389 0.034165 -0.030302
0.015653 -0.030499 0.000444
0.003503 -0.002123 0.044153
0.021686 -0.031139 -0.002172
-0.019152 -0.019308 0.007054
0.002731 0.022331 0.006673
-0.030841 -0.020691 -0.027463
-0.029748 0.012989 -0.012874
0.013220 -0.030066 0.000713
0.012825 0.015085 0.004718
-0.012101 0.014490 0.030520
-0.020561 0.001813 0.024256
-0.015006 0.025620 0.003928
0.008689 0.016066 0.026747
0.001716 0.026230 0.002960
0.014310 -0.017543 -0.010688
-0.016399 -0.006386 0.028755
0.007315 0.021774 -0.011341
0.004632 0.035637 -0.013914
0.009362 -0.038460 -0.017622
0.018729 0.008090 0.015517
0.024814 -0.027800 -0.029929
-0.023738 0.001505 0.016228
0.011814 -0.011658 -0.015141
0.013796 -0.012255 -0.020058
0.028311 -0.018839 -0.033663
0.005391 0.034082 -0.003851
-0.013421 -0.023572 -0.043273
-0.028061 0.002672 0.005643
0.010257 0.023717 -0.001103
0.024016 -0.003146 -0.028759
0.021540 -0.035523 -0.013627
0.010426 -0.005621 0.005457
-0.000892 0.018969 0.015844
-0.004290 0.018589 0.027739
0.020001 -0.005275 0.018359
0.015219 0.014232 0.018348
0.018473 -0.010551 -0.028805
-0.003153 -0.014566 0.029058
-0.028729 -0.021335 -0.012496
-0.021926 -0.023358 -0.038805
0.026492 0.003763 -0.030565
-0.033454 0.006804 -0.035671
-0.015006 0.026712 -0.008619
0.016303 0.006343 -0.045462
0.026737 -0.031375 -0.021575
-0.037253 0.001075 -0.016986
-0.033027 -0.003897 -0.004428
-0.030826 -0.019757 -0.014431
-0.037124 0.003213 -0.024953
-0.031615 0.001551 -0.001724
-0.001993 -0.014243 0.030371
0.018229 -0.006850 0.020667
-0.034315 0.008367 -0.030303
0.030728 -0.008004 -0.045370
-0.037893 -0.002205 -0.021032
-0.019901 -0.026062 -0.015290
0.014133 0.021295 -0.027791
-0.029143 0.013373 -0.035973
-0.017279 0.012624 0.020663
-0.012970 0.027007 -0.019651
0.002333 -0.013999 0.013999
0.006227 0.028197 0.000786
-0.033285 0.010359 -0.029001
0.019622 0.002775 -0.027802
-0.030824 0.001958 -0.042361
-0.031861 -0.019871 -0.021632
0.006513 -0.036530 -0.007648
0.011342 -0.002560 0.039619
0.011073 0.014418 0.028318
-0.009460 0.020349 -0.042740
-0.020050 -0.023516 -0.005588
-0.011219 0.018430 -0.043862
-0.021677 0.018432 -0.007024
0.014690 0.017226 0.012239
0.015153 -0.006861 -0.045371
-0.001481 0.026990 -0.037453
0.001357 -0.010600 0.038452
0.016824 -0.003067 0.033888
-0.032316 0.011760 -0.023645
-0.023657 -0.025552 -0.030361
0.025518 -0.003115 -0.029163
0.008252 0.030435 -0.011988
0.008434 0.024189 -0.011117
-0.021192 0.002077 -0.045207
-0.024908 0.017952 -0.036231
0.027117 -0.020345 -0.032586
0.007978 0.036157 -0.024220
0.026885 -0.004064 -0.030069
-0.037835 -0.000564 -0.021415
-0.023769 0.016643 -0.008991
-0.025847 0.018109 -0.032604
0.003344 0.021212 0.014130
-0.016354 -0.024370 0.000051
-0.021242 -0.010398 0.014658
-0.006799 -0.011480 0.034836
-0.026671 -0.020825 -0.037955
0.015026 0.009881 0.025222
0.007386 -0.009941 0.036418
-0.004752 0.025396 0.004623
0.008156 0.012238 -0.045443
-0.025492 0.015432 -0.006811
-0.006231 -0.027039 0.005986
-0.037787 -0.005032 -0.021761
0.008396 0.025331 -0.014774
-0.017546 0.010075 0.025906
-0.024771 0.005103 0.012894
0.021938 -0.006746 -0.045488
0.003850 0.020118 0.019134
-0.036239 -0.010775 -0.027846
-0.021240 0.016047 0.010544
-0.021176 -0.000559 -0.045132
0.013717 0.023573 -0.032981
0.002781 -0.028913 -0.038596
0.001052 0.023911 0.004426
-0.002500 0.004659 -0.045569
0.017366 -0.002189 0.032219
0.011244 -0.003520 -0.045426
0.019404 -0.016756 -0.013647
0.018753 0.009199 -0.030286
0.034736 -0.018858 -0.041430
-0.029074 0.012727 -0.009445
0.009827 0.007029 -0.014786
0.006291 -0.013155 0.016163
-0.037068 -0.006458 -0.016498
0.004909 0.013938 -0.013443
-0.014215 -0.025697 -0.010992
0.011138 0.016765 -0.025265
-0.011363 0.019112 0.013596
-0.029722 0.013528 -0.015990
0.007062 0.011133 -0.011557
0.001569 -0.036655 -0.027447
-0.007914 0.012038 -0.045729
-0.011433 -0.028393 -0.003974
0.013246 0.004444 -0.045857
-0.032555 -0.002490 -0.003293
-0.016051 -0.027641 -0.035819
-0.007133 -0.006371 -0.044961
0.009329 0.025477 -0.009379
0.014676 -0.035598 -0.003999
0.016868 -0.025078 -0.000007
-0.015093 -0.003019 0.036444
-0.011624 -0.021460 0.012492
0.000086 0.006472 -0.045728
-0.027793 0.005964 0.005369
-0.033505 -0.009134 -0.038370
0.000823 0.016533 -0.044144
0.008964 -0.029473 0.000382
-0.007530 0.013650 0.039510
-0.015788 0.015734 0.017122
-0.001560 0.028641 -0.036359
-0.022981 -0.024097 -0.010131
0.014492 0.002556 -0.025110
-0.009905 -0.031583 -0.031567
-0.009217 0.032118 -0.000772
-0.015525 0.027709 -0.004900
0.018855 -0.032837 -0.029469
0.019501 0.003490 0.010478
-0.029338 -0.016777 -0.006469
0.007385 0.014182 -0.006669
0.007980 -0.013841 -0.006687
0.007104 -0.007562 0.039658
-0.004655 -0.031026 -0.019100
0.006643 0.020197 -0.010703
-0.035070 0.003040 -0.010449
-0.013642 -0.007782 0.032233
-0.005782 0.017753 -0.043929
-0.036712 -0.002537 -0.013584
-0.003328 0.003469 -0.045479
-0.013494 0.028028 0.001677
-0.006440 -0.031059 -0.022107
-0.009251 0.030887 -0.018571
-0.002948 -0.029876 0.001116
-0.006152 0.025198 0.005219
-0.017436 0.020918 -0.040331
-0.024880 -0.000647 0.013351
0.001569 -0.014501 0.016994
-0.013581 -0.006934 0.033951
0.013914 -0.001258 -0.018374
0.000392 -0.026336 0.004018
0.001131 -0.020998 -0.043499
-0.014218 -0.015801 -0.044675
-0.020371 -0.017233 -0.044138
-0.021310 -0.008010 0.016959
0.011676 0.030040 -0.030421
-0.033109 -0.010647 -0.007833
0.027241 -0.029585 -0.023755
-0.022570 0.020229 -0.035997
0.016291 -0.001443 0.006974
0.008021 -0.037544 -0.014647
0.008387 -0.000036 -0.045514
-0.006894 0.004328 0.045345
0.022921 0.009187 -0.040609
0.003645 0.017592 0.033633
-0.030170 0.013256 -0.033203
-0.014305 0.007294 0.038852
-0.033517 0.010024 -0.019370
0.023320 0.003305 -0.028643
0.010388 0.011832 -0.045278
-0.029158 0.001859 -0.043567
-0.000751 -0.027713 0.003297
0.011251 -0.016305 -0.044619
-0.012900 0.030362 -0.008803
0.018602 -0.002131 0.023081
-0.016371 0.016455 0.015373
0.027334 -0.022534 -0.042205
-0.015254 0.026550 0.002090
0.029218 -0.003884 -0.044118
-0.023458 0.005529 0.015743
-0.012703 0.031110 -0.003857
-0.012887 0.026513 -0.012897
0.017143 0.007674 0.033505
0.014669 -0.020627 -0.003808
-0.020124 -0.011281 0.015698
0.001674 0.007683 0.044389
0.004910 0.022903 -0.040385
-0.017785 -0.020968 0.006272
-0.004929 -0.030415 -0.017128
0.008981 0.029595 -0.005028
0.030552 -0.026054 -0.019891
0.011866 0.026741 -0.033785
0.012562 0.006359 -0.045836
-0.023530 0.003838 0.016247
-0.019142 -0.023456 -0.004000
-0.015221 -0.027410 -0.021545
-0.037377 0.001525 -0.018659
-0.001503 0.007461 -0.045781
-0.007504 -0.002556 0.044449
0.037449 -0.014613 -0.041522
-0.018748 0.004793 -0.045369
0.029619 -0.017641 -0.034647
0.006968 0.012056 -0.009121
0.021853 -0.012243 -0.045463
0.000793 0.019293 0.017423
0.007721 -0.024799 -0.000081
-0.026258 0.015169 -0.010184
-0.025084 0.009139 0.010268
-0.018423 0.013260 0.017544
0.008486 -0.001463 0.041829
0.018930 -0.037424 -0.018892
-0.030393 0.006689 -0.001444
0.018248 -0.003483 -0.028038
-0.002871 0.035480 -0.028593
-0.032442 0.011250 -0.018603
-0.034215 0.005907 -0.010769
-0.034427 0.007199 -0.013523
0.006488 -0.011715 0.004291
-0.032541 0.011302 -0.020374
0.010360 0.012987 0.036192
0.021099 0.008080 -0.030358
0.025810 -0.032488 -0.020838
0.021584 -0.019078 -0.006373
-0.035817 0.006668 -0.024377
0.010067 0.010992 0.002011
0.016535 -0.009396 0.020221
0.000643 0.035835 -0.002672
0.006766 -0.012818 0.014705
-0.013784 -0.016886 0.017282
0.005049 0.014054 -0.045184
0.011109 -0.009644 0.009604
-0.001341 0.033393 -0.032281
0.011028 -0.037660 -0.012709
-0.022988 -0.020514 -0.001957
-0.011881 0.009462 0.040351
-0.014057 0.011225 0.034775
-0.012381 0.003060 0.042481
-0.019995 -0.024214 -0.039100
0.026601 0.006237 -0.033007
-0.004261 0.035629 -0.026740
0.003069 -0.016373 0.006938
0.011042 -0.012488 0.015852
0.000357 -0.035019 -0.032591
0.005582 -0.037802 -0.024134
0.033520 -0.019836 -0.042695
0.006853 0.014926 -0.020713
0.018210 0.001545 -0.027482
-0.011132 0.029573 -0.020502
0.008368 0.011248 -0.021243
0.016999 -0.033260 -0.029386
0.027551 -0.020176 -0.007394
-0.004097 0.037348 -0.004885
-0.028953 0.014795 -0.024115
-0.019121 0.006601 0.026368
-0.030633 -0.021125 -0.018637
-0.037371 0.001891 -0.026025
-0.019642 -0.015003 -0.044603
-0.030241 0.013908 -0.028574
-0.035270 0.007059 -0.017962
0.010142 0.005656 -0.013210
0.013988 0.018517 0.012254
-0.016444 -0.025273 -0.010651
0.014825 -0.008066 -0.022663
0.009567 0.034967 -0.024479
0.029961 -0.000461 -0.032486
-0.012979 -0.028746 -0.024788
-0.026722 -0.024026 -0.029271
0.006236 0.018669 -0.010033
-0.002224 -0.035167 -0.024951
0.008722 0.008622 -0.013729
-0.008118 0.017816 0.018904
0.000365 -0.019551 0.009805
0.028922 -0.002331 -0.043571
-0.032418 0.007809 -0.036805
-0.023847 0.016777 0.003485
0.000056 0.032257 0.000210
0.017293 -0.036207 -0.025175
-0.008460 -0.025206 0.008464
0.003202 0.018079 0.031726
0.004966 -0.012096 0.007589
-0.017599 -0.025765 -0.038537
0.000396 0.037004 -0.015069
-0.033864 -0.015938 -0.029863
0.010107 -0.037099 -0.009534
0.032238 -0.001396 -0.039360
-0.013467 0.028691 -0.022765
-0.023938 0.014967 0.007196
-0.036543 0.004359 -0.018242
-0.001123 0.003681 -0.045529
-0.029910 0.013898 -0.022848
-0.002102 0.020431 0.009095
-0.007383 0.006363 0.044759
0.000763 0.035393 -0.029942
0.001617 0.018082 -0.043257
-0.003881 -0.011415 0.036817
0.017321 -0.010771 -0.045272
-0.011571 -0.026001 -0.042247
0.014555 -0.016723 -0.013286
0.014890 0.018021 -0.035924
0.017135 -0.019477 -0.044492
0.006386 -0.036860 -0.013913
-0.006151 -0.025359 0.008474
0.013565 0.025104 -0.031742
-0.019782 0.006098 0.024495
0.007773 0.032445 -0.009537
0.021842 -0.000011 0.015322
-0.016945 -0.027996 -0.026150
0.013852 -0.037307 -0.011083
-0.011977 0.032130 -0.007564
-0.007591 0.026022 0.004995
0.001491 -0.033511 -0.002954
-0.034632 -0.015405 -0.020727
-0.028056 0.007208 0.004199
0.011134 -0.037757 -0.024549
-0.027811 0.014878 -0.036213
-0.023355 0.019477 -0.024516
0.004842 0.035767 -0.017285
0.016075 0.015439 -0.038400
0.010490 0.031348 -0.019296
0.011211 -0.001458 -0.010893
-0.030056 -0.012012 -0.003054
-0.012069 -0.029429 -0.025803
-0.011098 0.028277 -0.015765
0.022655 -0.004707 -0.029179
0.001337 -0.014641 0.015252
0.027454 -0.024573 -0.026613
0.020375 0.004552 -0.028343
-0.004427 -0.016245 -0.044706
0.010929 -0.005464 -0.009092
-0.028278 -0.017157 -0.005068
-0.003681 -0.032542 -0.012097
0.003655 0.018133 0.027478
0.010108 0.003398 -0.045752
0.016312 0.005710 0.008564
-0.004446 0.038264 -0.010278
-0.000344 0.036658 -0.016605
0.007967 0.021949 0.016117
-0.016739 0.010313 -0.045646
-0.029509 -0.006518 0.001300
-0.016087 -0.018071 0.013177
0.008323 -0.013061 0.021279
-0.005120 -0.015475 0.025183
-0.003244 -0.013319 -0.044826
0.029096 -0.019259 -0.019304
0.010391 -0.006909 0.006609
-0.028163 0.013202 -0.007857
0.009210 0.015602 0.028443
-0.003482 -0.034944 -0.028476
0.017809 -0.012394 -0.045255
-0.031278 -0.017096 -0.010699
-0.001439 -0.007426 0.042341
-0.033682 -0.000752 -0.039366
0.000068 0.012819 -0.045574
0.017900 0.000702 0.033076
-0.027065 -0.012447 -0.043281
-0.027729 0.009235 0.003737
-0.009313 0.026893 0.004466
0.003195 0.013163 -0.045497
-0.024323 -0.024620 -0.013444
0.010313 0.033828 -0.026356
-0.014793 0.025959 -0.036039
-0.008056 -0.029014 0.001570
-0.033987 -0.016125 -0.028142
-0.015956 0.022862 -0.010487
-0.037367 -0.007332 -0.019894
-0.020906 -0.020583 -0.042455
-0.031758 -0.011278 -0.005609
-0.018060 0.011260 0.021572
-0.032952 0.003494 -0.039161
0.007065 -0.013213 0.017431
-0.020207 -0.026163 -0.034194
-0.013363 -0.028440 -0.037606
0.025723 -0.010876 -0.045608
0.012548 0.000787 -0.045702
-0.002904 -0.031837 -0.001836
0.001301 -0.011525 0.036902
-0.003618 -0.003662 0.044758
0.021315 -0.015970 -0.022869
-0.005810 0.034604 -0.028036
0.015450 -0.029513 -0.033677
0.007983 0.022327 0.010950
-0.024013 -0.025718 -0.028486
-0.008454 -0.031759 -0.035431
0.015654 0.009619 0.027338
-0.003907 0.015086 0.039438
0.014777 -0.017029 -0.044804
-0.003639 -0.034066 -0.033547
-0.027873 -0.023684 -0.018560
0.012523 -0.009800 0.026688
0.015288 -0.026332 0.000542
0.015962 -0.034856 -0.003142
-0.034429 -0.008005 -0.009063
0.004829 -0.012108 0.010103
0.015698 0.008675 0.025424
-0.015669 0.009357 -0.045719
-0.007334 -0.014201 -0.044727
0.017135 -0.019555 -0.005623
0.012552 0.013264 0.033705
0.008381 -0.036802 -0.008598
0.016969 0.007536 0.022317
0.008643 -0.028416 -0.035564
0.004932 0.013543 0.039956
-0.024264 0.019850 -0.030260
0.003335 0.014247 0.040101
-0.016877 0.007769 -0.045618
-0.005667 0.036878 -0.005105
-0.026192 -0.024991 -0.021850
-0.021831 0.022117 -0.032465
-0.022453 0.021388 -0.027412
-0.004737 0.018461 0.015034
0.008385 0.009058 -0.012107
-0.009000 0.017503 0.020165
0.022396 -0.016509 -0.017888
-0.029713 -0.021075 -0.014454
-0.008215 0.030078 0.001714
0.016825 -0.034472 -0.027915
0.023790 -0.013630 -0.029597
0.010899 0.014517 0.025965
0.008093 -0.036159 -0.004790
0.017669 0.001739 0.024749
0.006988 0.014967 -0.044711
0.035997 -0.015102 -0.044951
0.032349 -0.010615 -0.045679
-0.016704 0.016946 -0.043832
0.000083 0.026142 -0.037916
-0.031975 0.004867 -0.039904
0.012674 -0.010601 -0.016802
0.002487 0.017596 0.034711
0.027982 -0.023408 -0.025658
-0.012689 0.003954 -0.045316
0.005739 0.017526 0.027223
-0.015189 0.010444 0.033355
-0.027509 -0.009286 0.003427
-0.000321 0.026266 0.003123
0.001326 0.018587 0.027420
0.037406 -0.013906 -0.043904
0.009538 0.021777 0.015386
-0.004406 0.037142 -0.013481
0.004880 -0.036263 -0.012993
0.030252 -0.021097 -0.043536
-0.037462 -0.001363 -0.028418
0.004060 -0.009806 0.038646
-0.013491 0.023601 -0.039577
-0.021113 -0.026968 -0.023466
-0.008150 -0.008856 0.038450
0.014784 -0.024426 -0.000186
0.014622 0.017656 0.014287
-0.014477 0.025764 -0.020253
0.013063 0.018794 0.017603
0.036284 -0.009953 -0.039337
-0.026112 0.000317 0.010330
-0.008473 0.017763 -0.044228
0.009553 -0.006235 0.000829
-0.007838 0.031371 0.000633
-0.007888 -0.030208 -0.022607
-0.034832 -0.000620 -0.008321
-0.035689 -0.000355 -0.010668
-0.014033 0.029754 -0.004229
0.024123 0.006614 -0.042448
-0.017022 0.024758 -0.022488
-0.024876 -0.025511 -0.019099
-0.007378 0.000294 0.045245
0.021184 -0.018277 -0.008083
-0.003359 -0.018431 0.015930
-0.037348 -0.002159 -0.016251
0.016364 -0.000701 0.035713
-0.018526 -0.026876 -0.019116
0.015885 -0.015415 -0.019445
0.010482 0.002595 0.004074
-0.002906 0.008865 -0.045847
0.020054 -0.021640 -0.043743
0.032088 -0.020382 -0.043486
-0.022793 -0.015668 0.006131
-0.022512 -0.026264 -0.029220
0.010231 -0.001003 -0.002896
0.008698 0.022609 -0.039888
0.019958 -0.018740 -0.007089
0.026160 0.007421 -0.039247
-0.008892 0.001536 -0.045223
-0.026007 0.013117 -0.041190
-0.029685 0.013847 -0.019497
0.012991 0.014980 0.021444
-0.012638 -0.027387 -0.001661
-0.002431 -0.032956 -0.019538
-0.035015 -0.013617 -0.016949
-0.005500 -0.016935 0.020831
0.005534 0.022201 0.011582
0.010273 0.020176 -0.040771
-0.022569 0.018597 -0.003057
0.016997 0.004367 0.034922
-0.010045 0.031910 -0.013185
0.023297 -0.017204 -0.011543
-0.017485 -0.024103 -0.003236
0.008773 0.000264 0.041894
-0.027718 0.010057 -0.041591
-0.025612 0.001066 -0.044806
0.009797 0.022095 0.002761
0.025634 -0.030269 -0.004711
0.023339 -0.015825 -0.026881
-0.026516 0.017316 -0.027031
0.029337 -0.030080 -0.016861
-0.017245 0.007598 0.031870
0.004938 -0.036763 -0.028263
-0.007176 -0.028895 -0.040940
-0.010167 -0.013987 0.025158
-0.008368 -0.007872 -0.044904
-0.014019 0.000491 0.040417
0.012171 -0.038768 -0.020521
-0.020896 -0.026296 -0.032501
-0.027263 0.015373 -0.017720
-0.009887 -0.009501 0.035424
0.024908 -0.004912 -0.029629
0.009689 -0.007497 -0.045254
0.019738 -0.036481 -0.013969
0.005879 0.012673 -0.012103
0.001483 -0.008612 0.040884
-0.036137 -0.010520 -0.016337
0.012153 0.013471 0.026854
0.006345 -0.006326 -0.045226
-0.017703 -0.027637 -0.032465
-0.036951 0.002068 -0.029004
-0.021522 0.017558 -0.013083
-0.016618 -0.019728 -0.044107
-0.025738 -0.023740 -0.012812
0.011291 0.006755 -0.020313
0.025463 -0.015897 -0.045367
-0.007783 0.032718 -0.000690
0.008257 0.014166 -0.004736
0.016475 -0.015050 -0.020945
-0.016881 0.019714 -0.041722
0.028997 -0.028232 -0.021978
0.009188 0.009357 0.000992
0.011905 0.001976 -0.014682
0.002558 -0.028587 0.000943
0.017405 -0.003443 0.024689
0.001527 -0.030418 -0.038080
-0.013390 -0.007633 -0.044884
0.019074 -0.029462 -0.000099
-0.030455 0.013597 -0.030179
-0.001222 0.038768 -0.010166
0.018805 -0.027629 0.000204
-0.004458 0.018204 0.019610
-0.018008 0.019261 -0.014411
-0.016014 -0.001935 -0.045027
-0.010389 0.016947 0.021092
-0.016968 0.017162 0.013840
0.010848 -0.013204 -0.013923
0.005273 0.036090 -0.028086
0.008555 -0.027323 0.000364
0.033025 -0.007154 -0.036604
0.012717 0.005884 -0.025082
0.008968 0.013919 -0.023988
0.016047 0.002327 -0.026737
0.004029 0.032673 -0.032926
0.004872 0.007674 -0.045853
-0.009326 0.034440 -0.004970
0.007919 0.014679 -0.022419
0.001491 0.022058 -0.040620
0.015720 -0.008744 0.011345
-0.010759 0.014075 -0.045508
0.002890 -0.013840 0.015815
-0.015895 0.026446 -0.006541
-0.014293 -0.029142 -0.028905
0.006161 0.012192 -0.013992
0.007755 0.025668 -0.037994
0.000127 0.014321 0.040924
-0.014786 -0.026447 -0.017372
0.026936 -0.017419 -0.017049
0.000650 0.033329 -0.032483
0.014052 -0.021805 -0.002273
0.017552 -0.008167 0.020256
-0.026851 0.015179 -0.013132
-0.019442 0.018415 0.009827
0.012758 0.019441 0.009295
0.007337 -0.019783 -0.003514
0.018395 -0.018847 -0.006956
-0.006415 -0.027754 -0.041965
0.006703 -0.000832 -0.045432
-0.033068 -0.000387 -0.004381
0.012434 0.002690 -0.045795
0.018286 -0.037233 -0.021884
-0.013785 -0.025878 -0.013549
0.008569 -0.006288 -0.045268
-0.007515 -0.030992 -0.008255
-0.013805 -0.025872 0.001673
-0.020300 0.004070 0.024446
0.005017 -0.020521 0.000743
0.002581 0.018555 0.023849
-0.020410 0.019971 -0.005965
-0.023536 -0.025312 -0.015011
0.000082 0.011429 0.043215
-0.016280 0.024970 -0.007593
-0.016422 -0.010315 0.023151
0.019183 -0.007093 0.017039
-0.011825 0.028254 -0.013653
-0.020372 0.020771 -0.004201
-0.012581 -0.030109 -0.031794
-0.001764 0.018839 0.029536
0.031355 -0.024850 -0.014573
-0.013872 0.023085 -0.015149
0.016689 0.011845 0.015763
0.008780 0.026074 -0.000229
-0.003365 0.036272 -0.024765
0.024453 -0.029922 -0.003322
-0.031750 -0.002199 -0.001686
0.001973 -0.002429 0.044564
-0.031294 -0.007337 -0.002293
-0.017849 0.006271 -0.045484
-0.017954 0.024136 -0.004042
-0.000135 0.016520 0.037860
-0.033355 -0.017502 -0.019523
0.013186 0.024730 -0.023209
0.010182 -0.022777 -0.040465
-0.019086 0.022373 -0.004286
-0.010062 -0.031332 -0.033699
-0.035245 0.007425 -0.019769
-0.004379 0.037990 -0.006630
0.023747 -0.001514 -0.028340
-0.018862 0.023282 -0.002428
0.019139 -0.006404 0.019104
-0.008910 0.008000 -0.045632
0.014323 -0.011202 0.015166
0.021571 0.001595 0.016915
0.002385 -0.006155 -0.045124
0.017156 0.006742 0.029168
-0.015379 0.026215 -0.021931
-0.019134 -0.020728 -0.043095
0.017919 -0.008637 0.017269
-0.003295 -0.031809 -0.017603
0.029954 -0.019114 -0.036250
-0.012884 0.015149 0.024198
0.003992 0.036767 -0.019403
0.024900 -0.023624 -0.040143
-0.011964 0.005892 -0.045486
-0.008955 0.017216 0.024989
0.013830 -0.029750 -0.033352
-0.027975 -0.023791 -0.021699
0.020103 -0.028876 -0.033808
-0.010453 -0.015360 -0.044665
0.008919 0.022139 0.012355
0.001274 -0.034760 -0.015975
0.005228 0.036939 -0.020910
-0.008363 -0.025749 -0.043077
-0.023141 -0.014128 0.007293
0.008068 0.021338 0.018281
0.014922 -0.031718 -0.031341
-0.021944 0.019542 -0.001714
0.031021 -0.019374 -0.037705
0.012601 -0.003151 0.038536
-0.036764 0.002393 -0.015670
-0.018519 0.021436 -0.020471
-0.023045 -0.026281 -0.027268
0.011399 -0.019684 -0.005805
-0.025217 -0.004792 0.011073
-0.010069 0.023448 -0.040494
0.017489 0.001553 0.028657
-0.030159 0.004565 0.000492
0.010300 -0.012714 0.021020
-0.014678 0.028211 -0.007339
0.011740 0.011614 0.036461
0.015467 -0.010569 0.019759
-0.031974 -0.019653 -0.024075
-0.037093 -0.003701 -0.030423
0.015765 0.000625 0.036470
-0.005519 -0.031576 -0.011307
0.010655 0.028497 -0.018407
0.015272 0.010009 -0.044666
-0.003216 0.017625 0.034473
0.013749 -0.005610 -0.017085
-0.010011 -0.031379 -0.029466
-0.005411 0.000390 0.045682
-0.029034 -0.022645 -0.017983
0.012996 0.021349 -0.036896
0.006923 0.035944 -0.027112
-0.031825 -0.008586 -0.003947
0.009446 0.007072 -0.006343
-0.009166 0.035058 -0.006561
0.016554 -0.035583 -0.005358
0.010190 0.017400 -0.023711
0.014536 -0.009970 0.023159
-0.022080 -0.026663 -0.021976
-0.000425 -0.035225 -0.021746
-0.007479 0.028945 0.002690
-0.023297 0.020803 -0.031423
-0.006479 -0.018413 0.017998
0.013043 0.016564 0.020204
0.011901 0.005124 -0.018795
-0.000285 -0.034272 -0.034089
0.014902 0.013323 0.010030
-0.032603 0.011472 -0.026715
-0.017405 -0.003082 0.030641
-0.002211 -0.033725 -0.011065
-0.036546 0.000102 -0.032192
0.002996 -0.030561 -0.000113
-0.020576 0.023587 -0.030794
0.018600 -0.016245 -0.017841
0.022853 0.007222 -0.030527
-0.027481 -0.023757 -0.027554
-0.028997 -0.013181 -0.002186
-0.016428 0.026075 -0.023461
0.030388 -0.022115 -0.020091
-0.009974 0.017332 -0.044466
0.018461 -0.028034 -0.035441
-0.004067 -0.025100 0.008338
-0.017159 -0.024071 -0.001527
-0.009024 -0.014830 0.024495
0.000420 -0.014850 0.024996
-0.037114 -0.007912 -0.026788
-0.004827 0.004405 -0.045499
0.013242 -0.027621 0.000806
0.007402 0.016984 0.026291
-0.024328 0.000356 0.014821
0.022279 -0.021154 -0.044264
-0.028558 0.014918 -0.022385
-0.005456 0.018257 0.028590
0.010181 -0.002342 0.003093
-0.020470 -0.025604 -0.013601
0.013629 0.021599 -0.035381
-0.036985 -0.005738 -0.030157
-0.009081 0.016053 0.032143
-0.023535 -0.016102 0.004239
-0.030663 0.012008 -0.034717
0.004011 0.034201 -0.031259
0.017240 -0.023702 -0.041284
0.014981 0.011352 0.028414
