-0.000872 -0.009271 0.040480
-0.031040 -0.017780 -0.012375
-0.042573 0.013681 -0.010966
0.001044 -0.017826 0.032091
0.011605 -0.033772 -0.040585
-0.016395 0.003315 0.020026
-0.028275 -0.028005 -0.038647
0.015446 0.035789 -0.026990
-0.005589 0.026082 -0.012418
0.029486 0.022614 -0.042381
0.025405 -0.004409 0.032684
0.021805 0.024536 -0.017567
-0.022386 0.029970 -0.020178
0.021447 -0.012367 0.025663
0.024027 0.011362 0.022453
0.046039 0.014676 -0.023010
0.046728 -0.013591 -0.040114
-0.000809 -0.020668 0.009467
0.050234 -0.010787 -0.033110
-0.019101 -0.027457 -0.016733
0.025234 -0.026045 -0.041934
0.042130 0.006717 -0.042845
-0.029130 0.008729 -0.007542
-0.044411 0.013888 -0.035801
-0.010538 -0.035474 -0.036703
-0.011026 0.037147 -0.029407
-0.042123 0.016498 -0.014514
0.005594 -0.020369 0.025323
0.033525 0.010921 0.016651
0.050900 0.008989 -0.035515
0.018578 -0.026720 -0.018652
-0.003405 0.006278 -0.041946
0.033918 0.013800 0.008416
0.038805 0.012740 0.015326
-0.042837 0.013693 -0.037943
0.032899 -0.006729 -0.042393
0.033464 -0.006568 0.019744
0.033892 0.024037 -0.022970
-0.019998 0.022965 -0.014141
0.022284 0.000721 0.037604
-0.036918 0.025375 -0.031091
0.040080 -0.006957 0.008107
-0.002104 -0.007860 0.040633
-0.045425 -0.018230 -0.028551
-0.009821 -0.016127 0.018072
0.019100 -0.034775 -0.033229
0.026661 -0.027927 -0.041005
-0.001222 0.014478 0.035184
-0.030618 -0.001293 -0.006211
0.002758 0.021301 -0.041735
-0.016650 -0.020397 -0.011531
0.002873 -0.003838 0.042383
-0.027894 0.018818 -0.042283
0.033906 0.008380 -0.008066
-0.010842 -0.013565 0.026865
-0.025854 -0.016029 -0.010246
0.022340 -0.013057 0.021042
0.038339 0.009067 0.019510
0.028045 -0.029416 -0.038387
-0.012320 -0.013713 0.017106
0.015159 0.009567 0.039561
0.000312 -0.030000 -0.041590
-0.028565 0.001435 -0.041574
0.027639 -0.013712 0.015025
-0.005239 -0.033782 -0.017037
-0.009423 -0.015834 0.013046
0.010621 -0.036238 -0.024485
0.005959 -0.022964 -0.012244
-0.013564 -0.008066 0.031527
-0.017537 0.032070 -0.038608
-0.009942 0.012643 0.028840
0.009710 -0.037671 -0.031889
-0.027515 -0.011042 -0.007807
0.000019 -0.019257 -0.041393
0.003811 0.038631 -0.028465
0.014281 0.032243 -0.021716
0.040696 0.010362 -0.014768
0.014093 0.004082 -0.042036
0.038546 -0.005923 -0.011285
0.008813 0.023612 0.017362
-0.019955 0.004669 -0.004898
0.000608 -0.026620 -0.041512
0.026676 0.010589 0.001350
0.007881 0.027726 -0.016479
0.050868 0.006272 -0.037547
-0.047345 -0.015432 -0.028067
0.009841 0.018613 0.002272
0.018329 0.028444 -0.020205
0.009591 -0.019445 0.028088
0.038682 0.024715 -0.029505
-0.030864 0.008229 -0.007414
0.025074 -0.008575 0.025683
0.038899 0.000992 -0.010958
-0.000059 0.038632 -0.030540
0.001741 0.012620 0.038404
-0.007262 0.037503 -0.032661
-0.016617 0.027195 -0.014715
0.049589 0.012709 -0.028642
-0.009816 -0.016049 0.015883
0.047421 0.008587 -0.020640
0.013389 0.027451 -0.042399
-0.032490 0.007687 -0.007090
-0.012402 0.034121 -0.037791
-0.000628 0.020749 0.019737
0.003607 -0.037679 -0.035115
-0.034133 0.014213 -0.010641
0.032321 0.025012 -0.023332
-0.041633 0.021551 -0.030620
0.003164 0.008136 -0.042077
0.017237 -0.027542 -0.019000
0.005485 -0.019849 0.026954
0.003605 0.018348 0.029158
-0.035248 0.011332 -0.008568
0.002646 0.020327 -0.010249
0.039702 -0.020890 -0.040663
0.044105 0.007251 0.016931
0.007399 -0.023914 0.011669
-0.020816 -0.032915 -0.023626
0.016666 0.034575 -0.025668
-0.035279 -0.015503 -0.041532
0.017425 -0.016871 -0.005287
-0.006056 -0.006759 0.039568
0.038940 -0.002101 -0.011060
0.004848 0.028288 -0.042268
-0.002948 0.033099 -0.041094
0.044915 0.002613 0.017973
-0.032392 -0.028311 -0.033673
0.004565 -0.023282 0.010786
-0.023627 -0.026192 -0.017990
-0.015783 -0.000999 0.027765
0.005048 -0.036973 -0.037003
0.021902 -0.010013 0.032196
0.034863 -0.004317 -0.007797
-0.007133 0.017002 0.013212
-0.005955 -0.038041 -0.024768
0.021877 0.016338 0.017742
-0.045967 -0.017525 -0.020172
-0.032944 -0.016676 -0.041730
0.004017 -0.035725 -0.039193
0.050671 -0.002724 -0.038413
0.024143 0.032746 -0.031715
-0.051732 0.005367 -0.017081
0.029725 0.029299 -0.029201
0.011722 0.019743 0.023918
-0.029360 -0.026238 -0.039716
0.039771 0.012390 0.012441
-0.040845 0.021605 -0.021772
-0.024534 0.030510 -0.036302
0.021721 -0.026575 -0.019698
0.005273 0.033769 -0.018972
0.010199 -0.010621 0.040817
-0.018934 -0.019883 -0.041457
0.045910 0.009165 -0.042235
0.045876 -0.018235 -0.033397
0.016881 -0.031239 -0.022161
0.017315 -0.029993 -0.021264
-0.024292 0.008024 -0.006618
0.040933 0.022651 -0.027677
0.013651 0.017270 -0.000487
0.021051 0.012447 0.028051
-0.009250 0.033844 -0.017291
0.017928 -0.017029 0.022619
-0.009073 -0.001696 -0.041739
-0.011394 -0.011883 0.029929
0.013662 0.025884 -0.042297
-0.005769 0.038290 -0.026923
-0.009391 0.007763 0.004920
-0.010892 -0.015165 0.018975
-0.034281 0.016202 -0.012242
-0.009896 -0.019993 -0.009750
0.005123 0.024525 -0.013688
0.006882 -0.024471 0.014665
-0.041578 -0.021704 -0.031860
-0.001336 -0.015671 -0.041499
0.002196 0.037657 -0.023113
0.008461 0.016861 -0.041881
0.002557 0.023250 0.015230
-0.009837 -0.014755 0.011420
0.015907 -0.018111 -0.007909
0.016028 -0.017948 0.024214
0.025278 -0.016089 0.012062
-0.042783 0.004721 -0.000738
-0.020771 -0.027657 -0.017704
0.002445 0.018445 0.028150
0.018184 0.020898 -0.012155
-0.009304 0.006903 -0.003298
0.051385 -0.001314 -0.026168
0.025664 0.012473 -0.002118
0.006175 0.008590 0.041280
0.031201 -0.012923 -0.042296
0.000931 0.018282 0.004737
-0.031662 -0.005168 -0.041705
0.000665 -0.014739 0.000859
-0.002798 -0.021013 -0.010254
-0.051792 -0.004549 -0.016183
0.018901 -0.003862 0.039751
0.016361 -0.003602 -0.042022
0.037331 0.012736 -0.042739
-0.018950 0.015234 -0.008875
0.023842 -0.009951 0.025538
0.017860 -0.013246 0.034684
-0.009976 0.037477 -0.026618
-0.051229 -0.004070 -0.025924
0.012340 0.003278 -0.041999
0.022638 0.025508 -0.042431
0.006857 -0.027891 -0.016596
-0.002673 0.019110 0.021660
0.039763 0.005271 -0.012147
-0.050234 -0.011327 -0.022634
-0.024920 0.024075 -0.041819
-0.033593 0.010671 -0.041952
-0.016041 0.017367 -0.041882
-0.004094 -0.020000 0.018644
0.019991 -0.020757 -0.012513
-0.043669 -0.008063 -0.039290
0.015186 -0.032240 -0.041083
0.048047 0.012465 -0.024116
0.018833 -0.019755 0.013286
-0.001443 0.029688 -0.042140
0.021784 0.030364 -0.041539
-0.042459 0.020462 -0.031181
0.032793 -0.009718 -0.042357
0.023017 0.015055 -0.004544
-0.033322 -0.004740 -0.041722
-0.029264 -0.013906 -0.009455
0.001793 -0.021950 0.009610
0.019118 -0.019362 0.016023
0.033038 0.005675 0.003844
0.015384 0.023397 -0.042156
0.020658 0.005314 -0.042154
-0.040243 -0.013314 -0.040287
-0.050625 -0.006382 -0.012060
0.023914 -0.031240 -0.026788
0.025186 0.003985 -0.042222
0.007184 0.020965 0.022553
0.003626 0.006671 0.041732
0.009722 -0.000220 0.042740
0.001136 -0.023168 0.014807
0.020186 0.014816 0.023502
0.013229 -0.018265 0.029914
0.004675 0.035706 -0.039646
0.006217 0.020470 -0.010572
0.009819 0.036575 -0.024149
0.049117 -0.004923 -0.022008
-0.000690 0.007334 0.040680
-0.025760 -0.030835 -0.025523
-0.041154 0.002729 -0.041301
0.025066 0.019933 -0.013585
0.047213 -0.016028 -0.029112
-0.034001 -0.020424 -0.015197
-0.042668 -0.021506 -0.023915
-0.014244 -0.034352 -0.036989
0.036378 0.008599 -0.010379
-0.005931 -0.018357 0.021139
-0.023961 -0.023326 -0.015858
0.029328 -0.008174 0.003171
0.019913 -0.034227 -0.029468
0.044906 0.005000 -0.042689
0.017743 -0.014028 -0.041982
-0.012289 -0.008210 0.008353
-0.011612 -0.012425 0.027964
-0.027941 -0.021520 -0.015105
-0.027214 0.025249 -0.040934
0.029793 0.029641 -0.037818
-0.035648 0.002087 -0.004020
-0.033916 -0.019013 -0.013841
0.044446 -0.002390 0.022442
-0.048225 -0.001424 -0.034416
-0.006066 0.020114 -0.041688
-0.047289 0.015831 -0.024707
-0.011170 -0.012629 -0.005292
0.035677 0.001865 0.021030
-0.028013 -0.011812 -0.041657
-0.012249 0.036560 -0.030770
-0.051193 0.006259 -0.024767
0.034779 -0.023968 -0.024061
-0.010918 -0.015141 0.016957
-0.039190 0.023954 -0.029531
-0.032809 0.012228 -0.042014
-0.034006 0.020828 -0.016348
-0.033599 -0.016367 -0.011522
0.036981 0.010509 0.018037
-0.013023 -0.029690 -0.041370
0.020877 -0.018119 0.015281
0.038840 -0.004015 -0.011182
-0.045237 0.014669 -0.014178
0.018638 -0.031005 -0.022757
-0.032029 -0.008742 -0.041714
0.029481 -0.013783 -0.008578
-0.000533 0.013929 -0.005489
0.009137 0.015237 -0.041937
-0.042606 0.019685 -0.032456
-0.019282 0.033906 -0.029558
-0.022689 0.031854 -0.024452
0.002045 0.037961 -0.034716
0.000462 0.036462 -0.020401
0.008965 0.021886 0.007260
-0.010939 -0.026934 -0.013149
0.005266 0.024469 -0.041943
0.013456 0.017213 0.031593
-0.037092 -0.002509 -0.002443
0.008334 0.008505 -0.042096
-0.034072 -0.017628 -0.012607
-0.010811 -0.036105 -0.034885
-0.035247 -0.027249 -0.030611
-0.011973 -0.026822 -0.041600
0.042015 0.009766 -0.042825
-0.001181 0.038432 -0.031904
0.049020 0.002958 -0.040931
0.001878 -0.029779 -0.041659
0.026587 -0.031079 -0.031019
-0.048543 0.013505 -0.025983
-0.040104 -0.017910 -0.038368
0.038660 0.000599 0.005814
-0.013392 -0.013755 -0.041497
-0.008960 -0.017046 -0.007608
0.008519 -0.023758 0.018617
-0.002509 0.016313 -0.007480
-0.045706 -0.015223 -0.014409
0.018767 -0.032476 -0.040112
-0.003477 -0.003121 0.041176
-0.003883 0.038527 -0.028670
-0.037255 0.011654 -0.008518
0.026841 0.015811 0.010091
-0.046342 -0.002240 -0.001382
0.044457 0.018665 -0.025595
-0.041488 -0.006075 -0.001327
0.007318 0.018597 0.029193
-0.042755 -0.021057 -0.022414
0.038947 0.005102 0.021437
-0.051621 -0.006492 -0.017841
0.019300 -0.017855 0.018977
0.020218 -0.016403 -0.005674
-0.006090 -0.014310 0.033368
-0.035658 0.018784 -0.040816
0.027856 -0.011166 -0.003389
0.017802 0.020069 0.010414
0.005973 -0.001222 0.042830
0.020510 -0.017258 0.007831
0.038920 0.008536 0.006878
0.007556 -0.037494 -0.025351
-0.046355 0.012769 -0.033368
0.045459 -0.009255 -0.018782
-0.036577 0.006403 -0.041887
0.039496 -0.018354 -0.020415
0.041789 0.001884 0.022947
0.002393 -0.036307 -0.038385
0.003380 0.027288 -0.042182
-0.051038 0.002024 -0.027398
-0.000388 -0.004104 -0.041992
0.027110 0.026419 -0.022247
0.042874 0.004058 0.022732
-0.008036 -0.007690 -0.041711
-0.009965 -0.015497 -0.006680
0.024296 -0.004272 -0.042192
-0.016225 -0.029212 -0.016450
-0.040963 -0.007855 -0.040963
-0.017629 0.024420 -0.042129
0.049785 -0.011182 -0.035419
-0.010500 0.035598 -0.020316
0.005215 -0.032842 -0.041306
-0.031755 0.015344 -0.042113
-0.041955 -0.011117 -0.039820
-0.016512 -0.001383 -0.003755
-0.019067 -0.029138 -0.040976
0.020121 -0.016600 0.019477
-0.041666 -0.008113 -0.003207
-0.010261 0.022031 -0.010949
0.001457 0.013973 0.037010
0.047439 -0.010535 -0.022084
0.020840 0.018739 0.012432
0.007346 -0.037449 -0.035065
-0.033264 -0.020023 -0.041234
-0.043548 -0.016867 -0.035051
0.024736 -0.011145 0.020328
0.012453 -0.023306 0.012391
-0.029240 -0.010500 -0.041676
0.030574 0.009773 0.004254
0.042572 -0.016781 -0.021511
0.005067 0.016199 0.034833
0.009709 0.032113 -0.019739
0.029779 -0.028204 -0.038940
-0.000018 0.017496 0.029648
0.041199 0.010788 0.012390
0.018172 -0.033751 -0.038697
0.027924 -0.000556 0.027709
0.027224 0.003568 0.029161
0.031210 0.014450 0.012440
0.033141 0.027062 -0.027655
0.038925 -0.022467 -0.039594
0.036943 -0.012829 0.014988
0.012275 0.017658 0.000445
0.048208 -0.005501 -0.020781
-0.003196 0.004364 -0.041976
0.010992 0.027470 -0.016990
0.035717 -0.026081 -0.032921
-0.014568 0.009099 0.020899
0.017512 0.017041 0.023615
0.045470 -0.013309 -0.021509
0.023797 0.016484 0.009095
0.045302 -0.006042 -0.017394
0.000657 -0.013288 -0.041648
-0.008228 -0.002650 0.039826
0.043522 0.005069 -0.015347
0.035936 0.006813 0.004827
-0.020388 0.002743 -0.004786
-0.029740 -0.005869 -0.006613
0.042049 0.002119 0.008584
0.023723 0.006557 0.034792
0.005156 -0.002023 -0.042009
-0.009620 -0.028055 -0.013391
-0.005427 0.007820 0.000309
0.037149 -0.001106 0.005169
0.015147 0.023322 -0.014035
0.035141 0.018709 -0.017640
0.038341 0.000117 -0.042673
0.023345 0.026602 -0.020515
0.014414 0.021090 0.019526
-0.002124 0.009435 -0.041930
-0.012950 -0.029473 -0.015183
-0.010516 -0.035636 -0.020730
0.003034 0.022774 0.010719
0.006499 0.025018 -0.014206
-0.031269 0.028793 -0.030599
-0.014496 -0.008519 0.026912
-0.000208 -0.022101 0.018570
0.000388 0.038015 -0.034354
-0.048582 0.006981 -0.032449
-0.015897 0.031282 -0.017116
0.046482 -0.016450 -0.027436
0.012982 -0.025804 -0.015920
0.009086 0.023932 0.015607
0.025750 -0.005963 0.030067
0.019605 0.035022 -0.031763
0.016519 -0.014143 0.035329
0.012736 -0.018750 -0.008643
0.000150 0.015049 0.001590
-0.016115 0.030111 -0.040904
0.002297 0.015276 0.035598
-0.020376 0.015569 -0.009429
-0.032990 0.011176 -0.008624
0.025569 0.011123 0.019890
0.043009 -0.021070 -0.034232
-0.045541 -0.003508 -0.038184
-0.007137 0.015461 -0.007049
-0.007304 0.015841 0.010428
0.045414 -0.002892 -0.042510
0.008815 0.009568 0.040809
0.017250 0.026096 -0.017515
-0.017144 0.015859 -0.008883
-0.011396 0.011595 0.028000
-0.038932 -0.024720 -0.025866
0.015963 -0.022487 -0.013340
0.011956 0.005584 0.041743
0.031483 0.007421 -0.042460
0.038444 0.002420 0.005668
0.007586 0.017812 0.031832
0.033514 0.003227 -0.042523
0.031599 -0.013788 0.013547
0.010074 -0.001731 -0.041914
0.010754 -0.023877 0.012662
0.004209 -0.012089 0.040043
-0.034847 0.005611 -0.041860
-0.015855 0.032500 -0.018339
-0.032947 -0.026437 -0.022235
0.005766 -0.015196 0.037629
-0.051629 -0.003085 -0.024160
-0.011446 -0.032622 -0.017110
-0.022900 0.024650 -0.016392
-0.019471 -0.033439 -0.034873
0.032795 -0.003548 -0.005438
-0.049648 -0.009993 -0.028154
0.008445 0.021019 0.005855
0.007118 -0.005750 -0.041980
-0.010737 -0.000467 -0.041680
0.028467 0.026647 -0.023293
0.002153 -0.016037 -0.006381
-0.035310 0.026389 -0.031466
0.021842 -0.022045 -0.014674
0.007638 -0.015514 0.037264
-0.004664 0.010829 -0.004123
-0.011628 -0.007322 0.007016
0.023424 0.017174 0.010625
-0.014271 0.032155 -0.017164
0.020172 0.017117 0.006107
-0.007031 0.025666 -0.041969
-0.005829 0.008558 0.001861
-0.008564 0.007240 0.037380
0.016171 -0.021529 0.016002
0.020491 -0.004622 -0.042121
-0.026815 0.011902 -0.041939
-0.022282 -0.032308 -0.024313
-0.033113 0.002351 -0.005777
0.010559 -0.036732 -0.036048
-0.020655 -0.004813 -0.004911
0.013670 -0.018146 0.002224
0.023432 0.017005 -0.042213
0.013788 -0.016879 -0.002717
-0.012237 -0.036505 -0.031879
0.028488 -0.001196 -0.042304
0.002509 -0.021012 0.023190
-0.027225 -0.031147 -0.031343
-0.012653 0.008261 0.009503
0.045374 -0.014808 -0.022786
-0.016116 0.025986 -0.013944
0.046847 0.016588 -0.026941
-0.003407 -0.037376 -0.021999
0.018756 -0.019102 -0.041916
-0.008205 -0.000177 0.000440
0.043279 0.001166 0.022949
-0.010019 -0.014640 0.025548
0.022147 0.014450 0.019868
0.045029 -0.008463 -0.042329
-0.028525 -0.001854 -0.041617
-0.003002 -0.036501 -0.037505
0.038926 -0.000269 0.022041
-0.038958 -0.008034 -0.004406
0.025989 0.001534 0.032908
-0.008250 -0.010116 -0.041669
-0.003240 -0.028777 -0.014382
0.040996 -0.010466 0.018642
-0.008555 0.037689 -0.025560
-0.040678 -0.011154 -0.006656
-0.001088 -0.027599 -0.041569
0.032291 -0.005659 -0.005316
0.020477 0.013914 0.025451
-0.041343 0.000114 0.001352
0.018221 0.016046 0.024733
-0.014998 0.006249 0.026162
-0.025746 -0.009554 -0.041655
-0.005482 0.012861 0.004325
0.044211 0.001958 -0.015639
-0.017290 -0.014018 -0.007043
0.031582 -0.014254 0.009851
-0.037782 0.003568 -0.041781
0.002626 -0.026695 -0.041561
0.017640 -0.035133 -0.034931
0.017694 -0.033225 -0.024724
-0.018284 0.004809 -0.041620
0.019974 -0.017405 -0.007749
0.050790 0.003650 -0.024730
0.032150 0.013666 -0.010363
0.042404 0.012202 -0.017254
0.013726 0.015815 0.034382
0.044851 -0.000003 0.017414
-0.048107 0.014690 -0.023096
-0.027220 0.028955 -0.037081
0.001533 0.022397 0.017741
0.001182 0.021486 -0.011054
-0.034912 -0.011822 -0.041781
0.011576 -0.037324 -0.031129
-0.032996 -0.028174 -0.026530
0.050260 -0.004111 -0.023913
0.012350 0.036807 -0.026639
-0.000942 -0.020346 0.022558
-0.020108 -0.031834 -0.038335
0.007317 0.000560 0.042830
0.021520 -0.029191 -0.022350
-0.016280 0.003947 -0.004025
0.010335 -0.019950 0.004551
-0.009718 -0.032834 -0.016742
0.004839 0.016539 -0.007027
0.019710 0.020655 -0.012312
0.031461 0.027509 -0.040072
-0.024049 0.019570 -0.013110
-0.033791 0.024515 -0.038003
-0.030790 0.022518 -0.017084
-0.041295 -0.022918 -0.025747
-0.005702 0.017208 0.022809
0.004353 -0.015298 -0.002682
-0.030732 0.006298 -0.006889
0.029078 0.030447 -0.034266
-0.001029 0.019722 0.021826
-0.046686 0.016007 -0.028034
-0.051479 -0.007350 -0.019641
0.025776 0.011648 -0.000073
0.003808 0.016928 0.001431
0.036134 -0.013123 -0.013086
-0.005020 -0.011716 0.002933
-0.025789 0.028232 -0.021150
-0.046885 -0.000925 -0.036676
0.031176 0.014880 0.010650
-0.005396 0.021727 -0.041720
0.046858 0.004817 -0.018728
-0.007867 -0.037883 -0.030654
-0.016392 -0.008395 -0.041620
0.020462 -0.021887 -0.041995
0.018736 0.021093 -0.042113
0.032719 0.008810 -0.007157
-0.015504 0.002501 -0.003711
0.005743 -0.028012 -0.041711
0.000106 0.010420 -0.041959
-0.004301 0.019590 -0.009651
0.026728 -0.013292 0.006275
0.019208 0.027474 -0.042515
-0.043014 -0.016967 -0.014590
-0.003185 -0.010886 -0.001351
0.017826 -0.034717 -0.036500
-0.039386 0.023865 -0.026595
-0.004834 0.008373 -0.000963
0.035370 0.024944 -0.025510
0.015744 0.003083 0.041083
0.039227 0.006620 0.021033
0.004413 -0.021691 -0.041499
-0.013409 0.010252 0.024459
-0.029394 -0.024065 -0.017814
0.036418 -0.008710 -0.010461
0.023593 -0.031966 -0.037736
0.018914 -0.009859 0.037867
0.002841 0.019333 0.025212
-0.009274 -0.017376 -0.041370
0.012436 -0.010368 0.040581
-0.036918 -0.026080 -0.031190
0.036018 -0.007843 -0.042442
-0.010596 -0.037496 -0.027786
0.002272 -0.016713 0.034987
0.004457 0.023004 -0.012407
0.002693 0.033179 -0.041501
-0.042008 -0.022078 -0.028942
-0.011703 -0.028721 -0.041567
0.000573 -0.022674 -0.011682
0.033117 0.011437 0.005637
-0.017134 0.034107 -0.021592
0.010134 -0.037364 -0.033538
-0.004330 -0.002028 -0.041903
0.018172 -0.016243 -0.002189
0.014288 0.036752 -0.034859
-0.025871 -0.018634 -0.041697
0.031108 0.012400 0.015318
-0.015490 0.000664 0.036752
0.030256 -0.005321 -0.002399
0.027381 -0.007295 0.023090
0.036781 -0.024315 -0.027012
-0.004774 0.003533 -0.041944
0.034150 -0.027001 -0.032847
0.000746 -0.026985 -0.014785
0.008524 0.004391 -0.042037
0.006425 0.018911 0.027831
-0.003147 -0.015784 0.033454
0.003461 0.019968 0.023793
-0.038526 -0.006249 -0.003276
-0.035087 -0.013768 -0.041716
0.049817 0.010887 -0.026626
-0.013335 0.007677 0.030749
0.008657 0.020411 0.023490
-0.027773 0.028520 -0.023387
0.001016 0.026153 -0.014174
0.000541 -0.014836 0.036991
-0.047577 -0.012562 -0.012675
0.016697 -0.014657 0.033780
0.000769 -0.008492 0.041115
-0.014906 0.035175 -0.032660
0.028528 0.020717 -0.016203
-0.031993 0.021419 -0.016356
-0.051898 0.002199 -0.014873
-0.010873 0.014042 0.019695
0.035177 -0.022168 -0.021720
0.025654 0.004569 0.032750
-0.008988 0.009941 -0.004401
-0.017688 0.013085 -0.007298
0.006304 -0.025438 -0.014411
0.022997 -0.016827 0.010104
-0.000415 0.016542 -0.007556
0.019211 0.018875 0.017537
-0.052143 -0.002288 -0.018908
-0.007324 0.005415 0.001685
-0.045920 -0.005951 -0.002781
-0.030673 -0.025712 -0.020062
-0.012374 0.003103 -0.041658
-0.034570 0.023062 -0.038852
0.026350 0.004098 0.031394
-0.017673 0.004629 -0.004398
0.029028 0.030387 -0.036097
-0.042367 -0.017461 -0.036209
-0.049819 -0.005441 -0.030219
-0.016954 0.033296 -0.020039
0.031592 -0.016549 -0.013261
0.021895 0.027075 -0.020346
-0.014511 0.036007 -0.024747
0.011197 -0.014505 -0.041794
0.031071 0.003122 -0.002891
-0.010442 0.007424 -0.041729
0.043406 -0.013567 -0.042165
-0.021183 0.017912 -0.011204
0.032579 0.022260 -0.042335
-0.024322 -0.010754 -0.041620
0.032917 0.024294 -0.041837
0.036016 -0.018839 -0.018435
0.044062 0.004264 0.015464
-0.006414 -0.008900 0.002574
-0.021376 0.032877 -0.030696
-0.023157 -0.011901 -0.041586
0.013295 -0.023933 -0.014142
-0.022036 -0.013432 -0.041547
-0.004033 -0.022187 -0.011066
0.035129 0.027199 -0.032714
-0.019829 0.016552 -0.041973
0.035903 0.008694 0.005270
-0.022362 0.010402 -0.007022
-0.008430 -0.013928 0.031159
-0.041709 -0.019054 -0.016944
-0.000628 -0.017728 0.005075
0.033678 0.012809 0.006899
-0.046297 0.011501 -0.034450
0.015009 0.013505 0.036826
0.030734 -0.004570 0.002854
-0.049944 -0.011595 -0.018010
-0.037116 -0.024892 -0.034345
0.034391 -0.006624 0.004774
0.027617 0.009355 -0.000105
-0.043064 -0.002772 -0.040406
-0.000467 -0.038051 -0.023744
-0.007542 0.005895 0.038665
-0.011761 -0.013530 0.013531
-0.006135 0.006610 0.000475
0.002537 0.022917 -0.041782
-0.002958 -0.016308 0.005114
0.007325 0.035195 -0.021052
0.000956 -0.018121 0.004616
0.034346 -0.010567 -0.042381
-0.016029 -0.002975 0.013663
0.031977 0.012730 0.006275
-0.033151 0.022330 -0.017591
-0.042794 -0.004806 -0.000146
0.017330 -0.007392 0.039903
0.024419 0.012360 0.019483
-0.008904 -0.029902 -0.014287
-0.022264 -0.032700 -0.025776
-0.042730 -0.007145 -0.002110
-0.014114 0.017644 -0.041828
-0.043178 0.019892 -0.021844
-0.047637 -0.004867 -0.004180
0.030981 0.011521 0.005175
0.052101 0.001652 -0.033315
-0.006667 -0.037256 -0.022462
0.020209 -0.026519 -0.019036
-0.036281 0.024456 -0.022321
-0.044536 -0.015473 -0.034630
-0.011002 -0.004400 -0.002770
0.006838 0.012179 0.039323
0.031687 0.002035 0.022363
0.028696 -0.008754 0.019828
0.027488 0.030449 -0.029285
0.030997 -0.028684 -0.031792
0.006960 0.025301 -0.042031
0.033016 0.014540 0.011304
0.012564 0.032730 -0.021333
-0.032718 0.006730 -0.041827
0.030940 -0.001155 -0.002582
0.003536 -0.021499 -0.010868
0.044704 0.003870 0.021833
0.005656 0.018811 0.003218
0.007186 -0.005651 0.042469
0.036253 0.025181 -0.026935
-0.032791 -0.025268 -0.020376
-0.039099 0.022593 -0.021562
0.041199 -0.000714 0.007667
-0.008936 -0.037360 -0.032108
0.012314 0.021839 -0.012144
0.038649 -0.023591 -0.037755
-0.027737 0.029700 -0.026287
-0.051510 -0.004859 -0.014499
0.019098 0.014699 0.026610
-0.046512 0.013665 -0.014027
0.033736 0.025227 -0.024612
0.015239 -0.005033 -0.042034
-0.031282 0.011513 -0.008798
0.030642 0.017653 -0.042474
0.006924 -0.037929 -0.033032
0.042241 -0.004908 -0.014206
-0.023772 0.005331 -0.041670
0.017760 -0.025089 -0.042004
-0.013909 0.008761 -0.041717
0.034116 -0.001565 0.021239
-0.027475 -0.013216 -0.008818
-0.018020 0.008518 -0.041723
-0.012648 -0.012583 0.023603
-0.049676 0.007372 -0.010671
-0.001786 0.038569 -0.030455
0.011375 -0.031653 -0.041613
0.024939 -0.016219 -0.008606
-0.011656 0.008365 0.007946
0.037746 -0.018806 -0.019587
-0.016319 -0.003980 0.023233
-0.002341 0.036974 -0.036756
-0.036321 -0.020501 -0.015914
-0.034783 -0.026774 -0.033926
-0.050284 -0.005609 -0.010325
-0.006983 0.015228 0.008771
0.015365 0.015184 0.034279
0.000070 -0.002584 -0.042025
-0.002006 -0.023673 -0.012273
-0.011630 0.035739 -0.034528
-0.020457 -0.033576 -0.025153
-0.005124 -0.016320 0.030139
0.005830 -0.021085 0.023668
0.022042 -0.030621 -0.040633
0.051093 0.007342 -0.036175
0.027523 0.021796 -0.016977
0.030154 -0.023187 -0.042073
-0.008784 0.003293 0.003157
0.013409 0.020441 0.006102
0.010222 -0.026429 -0.041774
-0.009398 -0.000404 0.003396
0.028991 0.014652 0.008082
-0.011128 0.036443 -0.032754
0.005223 0.012294 0.039185
0.000686 -0.024360 -0.013068
-0.013311 -0.003687 0.037569
0.044315 -0.005409 -0.016241
-0.009237 0.015656 0.017557
-0.051305 -0.001823 -0.011750
-0.012491 -0.035223 -0.021106
-0.001392 -0.019325 0.025222
0.034128 -0.003518 -0.042484
-0.038129 -0.009576 -0.006010
-0.011913 -0.036688 -0.024396
0.031640 0.001038 -0.042427
0.043559 -0.003086 0.013843
0.003388 0.038648 -0.030000
0.005795 -0.038382 -0.029955
0.040222 -0.011379 0.012475
0.017441 -0.020473 0.016732
-0.028015 -0.016419 -0.041740
0.017448 -0.020510 0.012031
0.018014 -0.031020 -0.041295
-0.015496 -0.028435 -0.041503
-0.011405 -0.036120 -0.022303
0.017646 0.017190 -0.006355
-0.005253 0.025654 -0.041969
-0.036443 0.020021 -0.039752
-0.003640 0.010111 -0.041890
0.011721 0.035440 -0.023523
-0.036607 0.025076 -0.024246
0.041397 0.013704 -0.042849
-0.041092 0.005212 -0.001269
-0.019237 -0.006415 -0.041604
-0.007261 0.015563 0.025848
0.018885 0.017890 0.006015
-0.035641 0.012941 -0.009672
-0.023779 -0.029199 -0.020805
0.021736 -0.033036 -0.028334
-0.010537 -0.033371 -0.039792
0.001290 0.007554 0.041086
-0.019235 0.012177 -0.007139
0.041128 0.000652 -0.042757
0.039934 0.009310 0.008240
-0.038134 0.016904 -0.013562
0.009264 -0.022674 -0.041631
0.047505 -0.013233 -0.024644
-0.038395 -0.015588 -0.040563
-0.016063 0.003698 0.015157
0.017609 0.020585 0.012131
0.000877 0.003903 -0.042063
-0.037873 0.009530 -0.041736
-0.009113 -0.005276 -0.002245
0.014972 0.017587 -0.041997
-0.017293 -0.021730 -0.012625
0.011973 0.020240 0.005186
0.024557 0.032152 -0.029923
0.018788 -0.012995 0.031711
-0.015822 0.005528 -0.004209
-0.044362 -0.010815 -0.006669
0.009487 0.024612 -0.014206
0.002232 -0.016876 -0.041542
0.035521 0.010286 -0.010493
0.023501 0.013645 0.018874
0.029872 0.000447 0.024283
-0.044242 0.019476 -0.027200
0.022082 0.008847 -0.042256
0.022767 0.027964 -0.021731
0.015829 0.013921 -0.042130
-0.008229 -0.035630 -0.019755
-0.026699 -0.028573 -0.022046
-0.003984 0.013843 0.003831
0.018424 0.012172 0.035849
0.029756 -0.011350 0.016809
0.027480 0.029376 -0.026805
-0.005437 0.008027 0.038579
-0.030381 0.019646 -0.014411
-0.051569 -0.000913 -0.025161
-0.041699 -0.018896 -0.035812
0.009709 -0.026271 -0.015678
0.011265 -0.025884 -0.015596
-0.020265 -0.032664 -0.036535
0.017929 0.005787 0.039733
0.021784 0.015386 0.004431
-0.015782 -0.005551 0.025206
-0.011411 0.028880 -0.013652
-0.033808 -0.025869 -0.036953
0.021439 0.007062 -0.042216
-0.001736 0.021148 0.016421
0.015649 0.036232 -0.028725
-0.034436 0.012251 -0.041950
0.001829 0.031707 -0.041958
0.008491 -0.034307 -0.021050
-0.013429 -0.012024 0.021701
-0.004216 -0.020849 -0.041310
0.048325 -0.001732 -0.041434
0.037798 0.008216 -0.011418
0.047951 0.009427 -0.021800
0.035786 0.021895 -0.021467
-0.046575 -0.017463 -0.024866
-0.003986 -0.038390 -0.030766
-0.012111 0.012784 0.019119
0.013390 -0.017583 0.000729
0.006748 -0.008737 0.041711
-0.032178 -0.021275 -0.041181
-0.016331 -0.003628 0.015621
-0.014485 0.020720 -0.011260
-0.013314 -0.012429 0.017030
-0.005288 0.016107 0.007808
-0.008364 -0.010037 0.004930
0.051267 0.000833 -0.037337
0.035115 0.013214 -0.042663
-0.026775 -0.003817 -0.006091
-0.014327 -0.025243 -0.041595
0.008789 0.001506 0.042724
0.002439 -0.022625 -0.011718
-0.044824 0.006211 -0.038682
-0.052049 -0.002853 -0.016969
-0.020871 -0.019227 -0.041534
-0.023465 -0.007958 -0.006056
-0.044693 -0.017541 -0.017568
0.034117 -0.013859 -0.012261
0.042928 -0.000331 -0.042783
0.031081 -0.025076 -0.041334
0.027619 -0.009390 -0.000032
0.006287 0.023254 -0.012754
0.030639 -0.015916 -0.011953
0.014257 0.014255 -0.042094
0.030264 -0.008422 -0.004070
0.047783 -0.014794 -0.027953
-0.051488 -0.006198 -0.015885
0.051005 -0.005795 -0.036448
0.006081 0.032370 -0.041897
0.019631 0.003911 -0.042087
0.040470 -0.016391 -0.042303
0.008909 -0.016574 -0.002706
0.011575 -0.000678 0.042489
0.038371 -0.013178 -0.014819
-0.011547 -0.037121 -0.026047
0.034090 0.007668 0.004474
-0.018595 -0.030335 -0.018533
0.026082 -0.029638 -0.039677
0.002225 0.036796 -0.021284
-0.038933 0.001972 -0.000269
0.015443 -0.034817 -0.025459
-0.021405 0.026758 -0.016929
-0.023379 -0.016500 -0.041575
0.039092 0.002814 -0.042744
-0.047730 0.005138 -0.034754
-0.010336 -0.031258 -0.015563
0.002115 -0.013928 -0.041658
0.042194 -0.014539 -0.019047
0.040403 0.023615 -0.029506
0.030487 0.004764 -0.002406
0.051222 -0.005477 -0.027290
-0.002735 -0.038116 -0.024023
0.023487 -0.016936 0.012064
-0.029811 -0.018051 -0.041807
-0.023304 -0.032357 -0.026939
-0.022262 -0.010109 -0.041613
-0.016167 0.004723 0.018736
0.046731 -0.006426 -0.019113
0.012826 -0.030453 -0.020073
-0.013039 -0.011651 0.025115
-0.042973 -0.020381 -0.021025
0.035357 -0.007530 -0.009107
-0.016318 0.002783 0.022059
-0.014474 0.026024 -0.013313
-0.017506 0.006795 -0.041670
-0.018475 -0.001831 -0.004221
0.011693 -0.021230 0.021864
0.038579 0.001932 0.021769
-0.012110 0.022500 -0.011412
-0.019889 -0.016223 -0.041469
-0.050764 0.006877 -0.026165
0.025542 0.027384 -0.022551
0.019696 0.033941 -0.038697
0.043532 0.005119 0.013770
0.015586 -0.003719 0.041255
-0.002368 -0.022578 -0.041323
0.049571 0.013596 -0.033692
-0.012958 0.026127 -0.012828
0.038163 -0.010730 -0.012931
-0.017621 0.018158 -0.010534
0.023520 -0.015091 0.006805
-0.021848 0.025841 -0.041677
-0.011096 0.013087 0.024059
0.026298 0.012506 0.017206
0.028837 -0.022064 -0.017839
0.007702 -0.002390 0.042822
-0.028218 0.025728 -0.019544
-0.049636 0.005493 -0.008756
-0.015583 0.006023 0.023015
0.001205 -0.022722 0.018477
0.018558 0.003652 0.039801
-0.027515 -0.027605 -0.021184
-0.002828 0.011697 -0.004025
-0.010976 0.003775 -0.041704
0.004709 0.037746 -0.035542
0.025184 -0.015814 0.013536
0.011663 0.006697 -0.042089
0.032311 -0.027326 -0.028503
0.023210 -0.026823 -0.020618
0.027810 0.015425 0.011882
0.034828 -0.013068 0.014634
-0.031833 0.026293 -0.022157
0.037234 0.021057 -0.042263
0.037893 0.010580 -0.012635
0.000125 -0.033456 -0.040867
0.003547 0.024182 -0.013283
0.002339 -0.007489 -0.041936
-0.022116 0.001100 -0.005092
0.035139 -0.024973 -0.039418
-0.049029 -0.013282 -0.018398
-0.035983 -0.003535 -0.041740
0.035223 0.025208 -0.040600
0.044248 0.019830 -0.027392
-0.049206 -0.004268 -0.006707
-0.016328 0.001042 -0.003772
-0.023610 0.030052 -0.037967
0.033206 0.014434 -0.042604
-0.015515 -0.005969 -0.003970
-0.011130 0.003789 0.005625
0.028385 -0.030176 -0.034052
0.006712 -0.036733 -0.037268
-0.031314 0.028734 -0.028987
0.037585 -0.002848 -0.010001
-0.006127 0.034674 -0.039353
-0.006928 -0.016967 0.024652
-0.040810 0.015544 -0.038920
-0.010470 0.002541 -0.002654
0.013191 -0.023232 0.016049
0.003267 0.008473 0.041082
-0.007760 0.003703 0.001700
0.015813 0.018849 -0.009109
0.046533 0.017823 -0.037653
0.027360 -0.026325 -0.041610
0.015102 -0.022178 0.013227
0.019960 -0.006818 -0.042172
0.026333 -0.018864 -0.012947
-0.014754 -0.019924 -0.010686
0.027433 0.001271 0.029263
0.033022 0.002152 -0.005436
0.012268 0.023997 -0.042099
-0.045267 0.001695 -0.000244
-0.012293 -0.016381 -0.041381
-0.030048 -0.002564 -0.041651
-0.012424 0.010167 -0.005035
0.036002 0.026584 -0.037287
0.032560 -0.022380 -0.020299
-0.037273 0.013761 -0.041425
0.028330 -0.011966 -0.005084
0.024231 0.027179 -0.021604
-0.004816 -0.029692 -0.014361
-0.029332 -0.030077 -0.028010
-0.021356 0.008100 -0.041746
-0.012557 0.031427 -0.015797
-0.044801 -0.011816 -0.036616
-0.007067 0.021880 -0.010796
-0.021352 -0.010653 -0.006376
-0.014224 -0.026349 -0.013964
0.001632 -0.005899 -0.041983
-0.033139 -0.021658 -0.016243
0.009463 -0.017696 -0.007143
0.001530 0.009253 0.040464
-0.028318 -0.020059 -0.013869
0.048468 -0.014310 -0.034742
-0.048427 0.002119 -0.033996
-0.006529 0.017825 0.016016
0.021344 -0.018721 -0.010387
0.011495 0.037557 -0.033339
0.041145 -0.006237 0.008953
0.009198 -0.022915 0.020162
-0.041213 0.021027 -0.032909
0.015308 -0.005588 0.041127
0.034845 -0.012305 -0.011434
-0.016634 0.001020 0.019338
0.026247 -0.011924 -0.002067
-0.021193 0.028302 -0.017785
0.041000 0.003765 0.022576
-0.050903 0.003504 -0.010946
0.006044 -0.018386 0.032438
-0.002947 0.000747 -0.041984
0.005246 0.003921 0.042468
0.040004 0.014842 -0.017320
-0.013244 0.024673 -0.012427
-0.027193 0.019489 -0.013694
0.010219 0.026915 -0.042271
-0.013398 -0.018936 -0.009643
0.035923 0.003896 0.020642
-0.024844 -0.031717 -0.027227
0.037437 -0.009744 -0.011798
-0.046932 0.015083 -0.029181
0.040406 -0.022117 -0.038394
0.048787 0.014882 -0.030338
-0.012174 -0.013599 0.021455
-0.050501 0.005181 -0.028196
-0.015571 0.008997 -0.005099
-0.039025 0.011094 -0.041343
0.043505 0.012773 -0.042633
-0.017265 0.030297 -0.016991
0.050112 -0.009576 -0.036404
-0.029604 -0.007832 -0.007011
0.025621 0.006039 0.031430
-0.048455 -0.003376 -0.004877
-0.007136 -0.017090 -0.041379
-0.006437 -0.038286 -0.026850
0.027865 -0.016249 -0.010533
-0.015962 -0.006652 0.017356
-0.050585 0.003558 -0.028568
0.042769 -0.018544 -0.023933
0.001862 -0.009920 0.040791
-0.032120 0.018699 -0.013956
0.019368 0.012746 0.032632
-0.018838 -0.015529 -0.008343
-0.013140 -0.036535 -0.030362
0.028935 0.013754 0.006671
0.021389 0.033130 -0.038916
0.026574 -0.020903 -0.015426
-0.031363 -0.017410 -0.041817
0.035563 -0.013270 0.010355
-0.002662 -0.021262 0.015477
0.032834 0.010324 -0.008207
0.009815 -0.018922 -0.008816
0.007343 -0.019622 0.004150
-0.014929 0.006444 0.013244
0.011638 -0.020023 0.024369
-0.046998 -0.014268 -0.030830
-0.003539 0.022759 -0.011572
-0.034987 0.017277 -0.041489
0.015443 -0.017090 -0.005230
0.042443 0.007437 0.011156
0.046574 -0.016891 -0.036314
0.015972 0.019121 0.021674
-0.049007 0.013267 -0.022097
0.010148 -0.020165 0.024912
-0.004446 -0.018266 0.009130
0.004202 -0.020521 0.006219
0.050098 0.012102 -0.034591
-0.002046 0.031766 -0.015476
-0.003102 0.020344 0.015808
0.033310 -0.001276 -0.042478
-0.026454 0.001117 -0.005993
0.006074 -0.002823 0.042765
0.022083 0.013706 0.021476
0.045102 0.014755 -0.041681
0.012651 -0.004092 -0.041943
-0.005883 0.016967 0.010255
0.039627 0.003529 0.006380
-0.030043 -0.005989 -0.041692
0.019846 0.013125 0.029266
0.014358 -0.016271 0.034087
-0.021569 -0.011857 -0.041569
0.009502 -0.024780 -0.041669
-0.001646 0.020035 0.020426
-0.036123 0.002868 -0.041794
0.000484 0.010284 0.039686
-0.019437 0.026236 -0.015578
-0.007739 -0.010057 -0.003674
0.013833 -0.021464 0.019984
-0.011739 -0.011633 0.010321
0.006432 0.019347 0.026180
0.033057 0.001651 0.021601
-0.029506 0.028877 -0.034772
-0.048003 0.014649 -0.025272
-0.050415 -0.004605 -0.028821
-0.037388 0.001942 -0.041771
0.009447 -0.032946 -0.020497
0.006071 0.010855 0.040176
0.021232 0.002126 -0.042061
0.022355 -0.033373 -0.032091
0.004391 -0.003657 0.042574
-0.014267 0.031695 -0.040204
-0.018140 0.028872 -0.016420
0.030874 0.021506 -0.042418
0.033305 0.016186 -0.013817
0.011673 -0.037085 -0.033330
0.015265 -0.012125 0.038657
0.019359 0.018214 0.007569
0.025001 0.016381 0.013124
0.015378 -0.019141 -0.009432
0.042808 -0.002776 0.010593
0.019140 0.019607 0.011873
0.004447 0.010890 0.040046
-0.014951 -0.007985 -0.041620
-0.042473 -0.021258 -0.030373
0.043014 -0.006354 -0.015234
0.029163 -0.016165 -0.011271
0.024063 0.012251 -0.042274
-0.025780 -0.031586 -0.032786
0.020230 0.010520 0.035718
-0.020629 0.033400 -0.027243
-0.000033 0.024409 -0.041844
-0.011937 -0.006202 -0.041624
0.014495 -0.009983 0.040174
-0.036523 -0.024294 -0.036241
0.019754 -0.015925 -0.003390
0.050526 -0.009565 -0.034324
0.043902 -0.004882 0.016005
0.024262 0.032477 -0.037364
-0.013811 0.030410 -0.041133
0.021540 -0.011253 0.028901
-0.005399 -0.034428 -0.039829
-0.037847 0.023641 -0.034171
0.039246 -0.010886 0.010156
-0.009336 0.015965 -0.007588
0.019328 -0.010701 0.036673
0.013751 0.032956 -0.041433
-0.021562 -0.028809 -0.018969
-0.007778 0.029494 -0.013376
-0.015193 0.007863 0.020148
0.022960 -0.010515 0.026960
0.021734 0.016149 -0.042168
-0.034247 0.010088 -0.007908
-0.012507 -0.007811 -0.041640
-0.016677 -0.023482 -0.041584
-0.010719 -0.004798 -0.041641
-0.005843 0.030220 -0.013825
-0.030660 0.027281 -0.023168
0.008559 0.017095 0.033452
0.015991 0.017946 0.024003
-0.039902 -0.021029 -0.018575
0.012080 -0.018935 0.028641
-0.012915 -0.007230 0.034272
0.044264 -0.019866 -0.031386
0.027922 -0.017891 -0.012621
0.009377 -0.024100 0.017369
0.002656 -0.028335 -0.041657
0.007861 -0.008430 -0.041942
-0.039853 0.022295 -0.033150
0.035947 -0.017687 -0.017212
0.038774 0.012123 0.009915
0.000914 -0.036634 -0.037715
0.023473 -0.015976 0.008498
0.005489 0.021358 0.021722
0.013431 -0.017248 0.032979
-0.014348 0.030690 -0.015886
0.000093 -0.010777 0.040038
0.019362 -0.013021 -0.042073
0.037562 0.024871 -0.027950
0.002611 -0.020205 0.025246
0.021218 -0.012038 0.027343
-0.003353 -0.019909 0.020625
-0.008888 0.020838 -0.041739
-0.004107 0.017686 0.008885
0.004466 -0.018184 0.032629
-0.016126 0.018524 -0.010422
-0.037225 -0.002394 -0.041763
0.028303 -0.026479 -0.022930
0.021177 0.016002 0.019292
-0.052108 0.002242 -0.016934
-0.035190 0.026654 -0.028486
0.013177 -0.008516 0.041114
0.007410 -0.036135 -0.022481
0.049106 0.012818 -0.026972
0.042289 0.009012 0.012654
0.007764 -0.036105 -0.038334
0.034197 -0.008746 -0.042391
0.031693 0.026218 -0.024723
-0.026193 0.016982 -0.011571
-0.014124 0.036267 -0.028212
0.007732 -0.038118 -0.029075
-0.004163 0.019028 0.012007
-0.010627 0.023398 -0.011430
-0.040398 0.022846 -0.030130
0.044786 -0.005078 0.019097
0.018564 -0.020636 -0.011939
0.034080 -0.005041 0.020354
0.012762 -0.028974 -0.018905
-0.042392 0.019007 -0.018630
-0.003750 0.010169 -0.002868
-0.041830 0.007608 -0.040734
-0.003758 0.026832 -0.013068
0.008976 0.006600 0.041896
-0.000500 -0.031680 -0.016356
0.017223 -0.015836 0.026926
0.028087 0.000616 -0.042304
0.019641 -0.019036 0.011714
0.024972 -0.027840 -0.022660
-0.004130 0.002733 0.040885
0.042169 -0.010238 0.017206
0.007656 -0.018210 0.032958
0.005659 0.017529 0.032300
0.027602 0.028505 -0.025399
0.051460 0.006867 -0.034625
-0.019847 0.030210 -0.018431
0.042571 -0.019520 -0.025258
0.029635 -0.013733 0.014211
0.036391 0.012989 0.008706
0.051549 0.006903 -0.029909
0.009460 0.027113 -0.016335
-0.029885 0.029417 -0.029298
-0.047792 0.014560 -0.019173
0.002773 0.018004 0.003314
-0.018454 -0.000305 -0.041515
0.030739 0.008129 0.003696
-0.046901 0.000795 -0.036660
0.002166 0.023161 -0.012427
0.033940 -0.011247 -0.009884
-0.002234 -0.025016 -0.013081
0.033517 0.019391 -0.017383
0.021953 0.014170 -0.042215
0.028577 -0.021079 -0.042207
-0.007534 -0.037975 -0.025612
0.020136 0.032772 -0.040130
0.025330 0.008983 -0.042294
0.028171 -0.013768 0.007488
0.044874 0.001877 0.022047
0.023924 -0.015746 -0.007007
0.003974 0.019072 0.004109
0.051925 0.002914 -0.034256
0.015744 -0.036017 -0.029631
-0.031036 -0.010123 -0.041702
0.007481 -0.020311 -0.041611
-0.013702 -0.009038 -0.041631
-0.026503 -0.030303 -0.036456
-0.015938 0.001739 0.013323
-0.016711 0.003578 -0.041595
0.028128 0.001436 0.027358
0.042850 0.003293 -0.014493
0.044444 -0.003800 -0.016090
0.021305 -0.001897 0.038377
-0.042110 0.012588 -0.039197
0.016882 0.028937 -0.020093
0.010032 -0.036312 -0.037495
0.046171 0.000513 -0.042493
0.020847 -0.005933 0.038155
0.037199 -0.025138 -0.032288
-0.017376 -0.027541 -0.015965
-0.019023 -0.022500 -0.013693
-0.007297 0.025158 -0.011872
0.030473 0.017962 -0.014017
0.010828 0.037454 -0.027327
-0.012373 0.003114 0.038265
0.044875 0.011619 -0.019249
-0.049026 -0.003387 -0.032551
-0.009213 0.037228 -0.031869
0.038854 -0.012143 0.011754
-0.014488 -0.010648 0.019558
-0.023122 -0.021904 -0.014473
0.010640 0.017256 -0.000582
0.022234 -0.027900 -0.021328
0.045226 -0.014429 -0.041085
0.003755 0.033379 -0.018120
-0.033861 0.027396 -0.028529
0.035411 0.005554 0.020031
-0.013738 0.006647 0.010375
-0.014958 -0.014251 -0.041462
0.023420 -0.010957 0.023606
-0.031852 0.022340 -0.040907
-0.025170 0.008173 -0.041787
0.014339 0.022528 0.013460
-0.050676 -0.006820 -0.026928
0.005204 0.021418 0.006902
0.043342 -0.004418 -0.015123
0.010333 -0.023877 -0.013532
-0.008762 0.036951 -0.033355
0.020699 -0.033691 -0.036216
-0.046807 -0.013858 -0.013613
-0.011511 0.022055 -0.041848
0.005406 0.020361 0.023411
-0.002917 0.016889 0.028560
-0.003962 0.031771 -0.041583
0.007353 0.009918 -0.042066
0.001843 -0.038504 -0.026247
0.021874 0.017919 0.010716
0.019707 -0.034536 -0.031187
0.026250 -0.024122 -0.018943
-0.048909 -0.012914 -0.027050
-0.014380 0.005085 0.033019
-0.035611 0.017509 -0.013602
0.020172 -0.011525 0.032636
0.038541 -0.007523 0.007036
0.029074 -0.029376 -0.029475
-0.003453 -0.013447 0.002846
-0.007996 -0.013249 0.006738
-0.004218 -0.013052 -0.041561
0.051037 0.008315 -0.028410
-0.016694 -0.000552 0.018491
0.046560 -0.006971 -0.041999
0.031081 -0.009412 -0.042332
-0.041039 -0.016040 -0.038617
-0.051711 0.002430 -0.024191
-0.002970 -0.019318 -0.008960
-0.011937 0.018902 -0.009800
-0.034549 0.026268 -0.024649
0.002556 -0.034319 -0.018724
-0.049110 0.008963 -0.030074
0.025155 -0.013721 -0.004069
0.039608 0.024701 -0.034881
-0.002226 0.013332 0.036093
0.040129 -0.012400 -0.042580
0.019976 -0.008824 -0.042190
0.034406 -0.017614 -0.016140
0.007584 -0.021428 0.022910
-0.019226 -0.010843 -0.005980
0.022725 0.033633 -0.033429
-0.012741 -0.013279 -0.005827
0.017701 0.031599 -0.022817
-0.042920 -0.019419 -0.033237
0.013262 -0.033230 -0.040726
-0.016194 -0.032173 -0.018911
-0.034691 -0.027085 -0.025481
-0.021977 -0.023449 -0.015347
0.043353 -0.002248 -0.042712
-0.030833 0.004624 -0.006567
-0.001444 0.038104 -0.033537
-0.015960 0.035394 -0.024047
-0.016442 0.034779 -0.031713
-0.016251 0.003956 0.017302
0.026355 -0.014838 0.014297
0.002665 0.015911 0.000796
0.000289 -0.038398 -0.025206
-0.015254 -0.007160 0.025757
0.036917 -0.001271 -0.042611
0.003337 -0.032488 -0.041374
-0.022538 -0.030699 -0.021590
0.041764 -0.000213 0.022952
0.010864 0.018713 0.028109
0.017177 -0.008145 -0.042150
-0.016577 -0.003666 0.019430
-0.002510 0.019452 0.009980
-0.037718 0.021907 -0.036972
0.050909 0.007207 -0.026735
0.014389 0.018610 0.024529
0.017047 0.022387 -0.042135
0.001766 -0.037950 -0.034199
0.002344 -0.029577 -0.016396
0.034395 0.014119 0.012304
0.018458 0.033489 -0.025498
-0.013921 -0.010379 0.024981
0.008492 -0.017378 0.034562
0.024212 0.014735 0.016751
0.051634 0.001741 -0.026923
0.031861 0.000595 0.002893
0.007013 -0.018456 0.002584
0.026998 0.015075 -0.008239
-0.016135 -0.000035 0.034796
-0.030288 -0.028692 -0.035792
0.040218 -0.023149 -0.032879
-0.002908 0.023338 -0.041759
0.028086 -0.019945 -0.015084
-0.011932 -0.013943 0.015644
-0.035862 -0.010426 -0.041772
-0.011886 0.012562 0.022691
0.026929 0.002891 0.030433
0.020383 -0.009219 0.036876
-0.029679 0.029285 -0.032923
0.025617 0.007678 0.028314
0.009596 -0.037138 -0.025807
-0.040255 0.001268 -0.041524
0.008942 -0.031325 -0.041696
0.001757 0.018692 0.026802
0.004217 0.016170 -0.041840
-0.045352 0.017012 -0.019005
-0.046235 -0.006303 -0.036763
-0.010646 -0.012307 -0.041590
-0.008066 -0.001711 0.000404
0.037719 0.005920 0.005458
0.045243 -0.001169 0.021520
-0.005471 -0.035836 -0.038089
-0.049944 -0.000595 -0.030762
0.013744 0.036700 -0.027811
0.027014 0.020791 -0.015551
-0.013922 -0.021373 -0.041337
-0.013582 0.010680 0.021309
0.029035 0.001130 0.025455
-0.042474 -0.012999 -0.008769
-0.017493 -0.023378 -0.013717
0.043699 0.006057 0.014917
-0.038438 0.007323 -0.041764
0.030140 0.002074 0.023807
-0.010713 0.012641 0.026987
0.036002 -0.015298 -0.014933
0.011760 -0.017888 0.001165
0.000534 0.018113 0.028013
0.001998 0.005843 0.041723
0.025073 -0.025193 -0.019642
0.029531 0.010552 -0.004977
0.015678 -0.021316 -0.012036
0.045090 0.002012 -0.042704
0.014211 -0.029262 -0.019578
0.013480 0.007142 -0.042115
0.032946 -0.027686 -0.034190
0.034527 0.026005 -0.026784
-0.026997 0.030307 -0.033657
0.002409 0.016293 -0.041810
0.013727 -0.036445 -0.034291
0.022427 -0.004542 -0.042146
0.036185 0.000194 0.004704
-0.001311 0.003572 -0.042028
0.007852 -0.017091 -0.000005
0.010487 0.009836 0.040519
-0.006658 -0.013869 0.005907
-0.008144 -0.026563 -0.012640
0.044027 0.007029 -0.016293
-0.010136 -0.007057 -0.041673
0.007759 0.020136 -0.041831
-0.021250 -0.008051 -0.005574
-0.050146 -0.006610 -0.028863
0.031168 -0.011140 -0.042313
0.024282 0.024656 -0.042470
-0.039884 -0.015184 -0.039892
0.007013 0.019998 0.024431
0.004483 0.002446 0.042595
-0.020122 0.003355 -0.041588
0.033323 -0.003394 0.021085
0.003429 0.001695 -0.042047
0.010080 0.023081 -0.041981
0.041723 0.008737 0.020646
0.018623 0.016954 0.003033
-0.009763 -0.014124 -0.041515
-0.018919 0.009326 -0.005828
-0.025626 -0.003823 -0.041612
-0.012551 0.014601 -0.007198
-0.042991 0.003120 0.000307
0.042840 0.014496 -0.019309
-0.041356 -0.003534 -0.041167
-0.016507 -0.012639 -0.006172
-0.008167 -0.015316 -0.006403
-0.048977 -0.011733 -0.028497
-0.039068 -0.024263 -0.024159
-0.005602 -0.037449 -0.034103
-0.028170 -0.000764 -0.006168
-0.038947 0.021518 -0.035891
-0.005351 -0.019511 0.016189
-0.049718 -0.012399 -0.019581
0.016267 -0.012629 0.037646
-0.006664 -0.010551 0.003804
0.023957 0.021270 -0.014726
0.020058 -0.033062 -0.038638
0.018493 -0.018120 0.006793
-0.026170 0.028953 -0.022661
-0.001269 -0.020756 0.021054
0.020932 0.025773 -0.018544
-0.043154 0.020211 -0.029643
-0.033005 0.027201 -0.025285
0.016265 0.015458 0.032416
0.039320 -0.012237 0.015726
0.029286 0.014546 0.012900
0.036795 -0.022017 -0.022769
-0.044566 -0.002759 0.000293
-0.032961 -0.006661 -0.041729
0.013116 0.020960 -0.041986
-0.009973 0.006238 0.004983
0.026489 0.030336 -0.027755
0.021862 -0.014575 0.001237
-0.048489 -0.007217 -0.007411
-0.014984 0.017623 -0.009614
-0.016620 -0.005170 -0.041570
-0.019827 -0.000951 -0.004517
0.010712 0.036207 -0.038506
0.040203 -0.007115 0.021319
0.025339 -0.023436 -0.017725
-0.010973 0.000575 -0.002569
-0.001840 -0.032677 -0.016535
0.003765 0.000581 0.042660
0.012546 -0.002812 0.042250
-0.003857 -0.015293 -0.041468
-0.005330 -0.009501 0.001527
0.023003 0.014092 0.002986
0.033676 -0.013794 0.012830
0.009586 -0.028323 -0.017518
-0.026816 0.029477 -0.024530
-0.009146 -0.012701 0.032446
0.029600 0.030073 -0.032611
0.024143 0.019162 -0.012186
-0.017623 -0.033746 -0.022017
0.010148 -0.021235 -0.011195
-0.000862 -0.023535 -0.041357
0.012174 -0.026187 -0.041795
0.008070 0.031074 -0.042164
-0.050301 0.005260 -0.010288
-0.015661 -0.002858 -0.003638
-0.004410 -0.035049 -0.018386
0.010059 0.000342 -0.041932
-0.002714 -0.012658 -0.004058
0.026671 -0.011704 0.004284
-0.027414 -0.010065 -0.041654
-0.014198 0.006039 0.030667
-0.009015 -0.037854 -0.028709
-0.028515 -0.029133 -0.036814
-0.015625 -0.022130 -0.041415
0.016268 -0.009014 0.039886
0.044964 0.020227 -0.031026
0.006426 0.028203 -0.016476
-0.022115 0.030846 -0.037684
0.037990 -0.000777 -0.010198
-0.014028 -0.005818 0.034102
0.010816 -0.002083 0.042600
-0.052008 0.000117 -0.022294
0.004487 -0.019478 0.004745
-0.008877 -0.000340 -0.001318
-0.022959 0.012212 -0.007995
-0.023639 0.013953 -0.009106
0.019901 0.031059 -0.041540
-0.004360 0.033876 -0.040404
0.015036 -0.017665 0.027559
-0.016868 -0.034650 -0.023216
-0.000204 0.017134 0.004152
0.029448 -0.006663 -0.042335
0.024654 -0.016232 0.010492
0.015693 0.033103 -0.041117
0.001865 0.032752 -0.017157
0.020906 0.026534 -0.042501
-0.007378 0.034207 -0.017365
-0.022688 0.014859 -0.041989
-0.003894 -0.018031 0.026477
-0.015209 -0.011498 -0.005435
-0.012751 -0.025087 -0.041540
-0.010913 0.034756 -0.037432
0.035395 -0.011632 0.007551
-0.034927 -0.008634 -0.006632
0.001481 -0.035837 -0.019858
-0.044194 0.008772 -0.038707
0.045354 0.002858 0.020046
0.038956 0.011951 0.017124
-0.034598 -0.001755 -0.041697
-0.004201 -0.019256 -0.041333
0.017268 0.015573 0.029160
0.031892 -0.000926 -0.004053
-0.038047 -0.023366 -0.035535
0.037880 -0.012223 -0.013719
-0.037609 0.024490 -0.032547
0.025459 0.014639 0.015619
-0.002086 -0.006138 0.041090
0.010735 -0.037325 -0.027688
-0.012060 -0.001313 0.006279
-0.052099 0.000758 -0.015977
0.029917 0.001818 -0.042365
0.033010 0.012527 -0.042569
0.024600 0.013112 0.003524
-0.020200 -0.000526 -0.041522
0.046444 0.018462 -0.030595
-0.016585 -0.003161 0.017853
-0.013156 0.035822 -0.022425
0.049694 -0.005934 -0.023419
0.042001 -0.019910 -0.039873
0.014800 0.008400 -0.042164
0.003173 -0.023776 0.016678
-0.015981 0.000383 0.025862
0.032936 -0.025287 -0.040501
0.023267 0.014304 -0.002498
0.013089 0.022851 0.011983
-0.033337 0.027454 -0.026896
-0.002686 -0.020649 0.019284
-0.007030 -0.023317 -0.041317
-0.003339 0.018653 -0.041683
-0.030129 -0.018853 -0.013125
-0.003670 0.006280 0.040105
0.005318 0.018546 0.029051
-0.020859 0.009210 -0.006214
0.036086 -0.007808 0.019432
0.006257 0.021375 -0.041809
-0.032113 0.019498 -0.041774
-0.040336 -0.017625 -0.013952
-0.003434 -0.032295 -0.041199
0.020645 0.015366 0.021207
0.011229 -0.015527 0.036805
0.033444 0.022969 -0.021336
-0.033322 -0.014920 -0.010407
-0.027877 -0.006809 -0.006656
0.019213 -0.027755 -0.019921
-0.016573 -0.017456 -0.009236
0.008863 -0.023470 -0.012989
-0.017439 0.034978 -0.024976
-0.027105 -0.008255 -0.041667
-0.043849 0.004870 -0.039776
-0.006173 -0.010931 -0.003650
-0.015854 0.007973 -0.041697
-0.022763 -0.017020 -0.010318
